-11.27549553 0.77475399 1.97964704 15 12 12
-11.27176857 0.77617800 1.98363698 12 12 11
-11.26802540 0.77760297 1.98762703 13 13 12
-11.26467800 0.77938598 1.99261498 12 12 11
-11.26007557 0.78009301 1.99460804 14 11 10
-11.25546741 0.78079998 1.99660206 13 12 8
-11.25084877 0.78150803 1.99859500 14 12 10
-11.24743557 0.78329003 2.00358295 13 12 8
-11.24440384 0.78543103 2.00956893 15 12 8
-11.23974609 0.78613901 2.01156211 12 11 10
-11.23428345 0.78612900 2.01155901 11 11 11
-11.23159409 0.78862798 2.01854396 12 11 12
-11.22808647 0.79041100 2.02353191 13 12 12
-11.22338200 0.79111803 2.02552509 12 12 11
-11.21866989 0.79182500 2.02751803 12 12 12
-11.21394920 0.79253203 2.02951097 15 12 13
-11.20960522 0.79359800 2.03250194 15 12 12
-11.20639896 0.79573900 2.03848910 13 13 13
-11.20278740 0.79752100 2.04347706 13 12 12
-11.19801617 0.79822803 2.04547000 13 12 12
-11.19248104 0.79821801 2.04546595 15 13 12
-11.18694687 0.79820901 2.04546309 16 15 15
-11.18253231 0.79927403 2.04845405 13 24 21
-11.17773342 0.79998100 2.05044699 20 55 44
-11.02643204 0.69668198 1.76289797 13 15 15
-11.02149200 0.69667298 1.76289403 13 15 15
-11.07279015 0.82483798 2.12024403 12 12 11
-11.06709766 0.82482803 2.12023997 12 12 11
-11.06140709 0.82481802 2.12023592 11 12 10
-11.05571461 0.82480800 2.12023306 13 12 8
-11.05002308 0.82479799 2.12022901 14 12 11
-11.04433060 0.82478702 2.12022495 14 12 11
-11.03956985 0.82585198 2.12321591 14 12 12
-11.03387165 0.82584202 2.12321210 11 11 10
-11.02817440 0.82583201 2.12320900 12 12 11
-11.02308273 0.82653898 2.12520099 12 13 9
-11.01828575 0.82760298 2.12819290 11 13 9
-11.01317596 0.82831001 2.13018489 12 12 11
-11.00805855 0.82901597 2.13217807 12 13 9
-11.00322819 0.83008099 2.13516903 12 13 9
-10.99809074 0.83078700 2.13716197 14 13 10
-10.99236393 0.83077699 2.13715792 12 13 12
-10.98663616 0.83076698 2.13715410 14 15 12
-10.98176956 0.83183199 2.14014506 10 13 9
-10.97603607 0.83182198 2.14014196 14 12 9
-10.97086811 0.83252800 2.14213395 12 12 11
-10.96512985 0.83251798 2.14213109 12 12 11
-10.95939159 0.83250803 2.14212704 13 13 9
-10.95365429 0.83249700 2.14212298 12 12 11
-10.94873905 0.83356202 2.14511395 14 12 12
-10.94299507 0.83355200 2.14510989 12 12 13
-10.93725014 0.83354199 2.14510703 11 11 12
-10.93204212 0.83424801 2.14709902 12 12 12
-10.92629433 0.83423799 2.14709496 12 12 12
-10.92133713 0.83530200 2.15008593 12 12 12
-10.91558170 0.83529198 2.15008307 11 11 11
-10.91034698 0.83599800 2.15207505 13 11 11
-10.90458775 0.83598799 2.15207195 11 11 11
-10.89959621 0.83705300 2.15506291 12 12 12
-10.89433670 0.83775902 2.15705490 12 12 12
-10.88906956 0.83846498 2.15904808 12 12 12
-10.88404369 0.83952898 2.16203904 12 12 12
-10.87826443 0.83951902 2.16203499 12 12 11
-10.87297440 0.84022498 2.16402793 12 12 12
-10.86791897 0.84129000 2.16701889 13 13 13
-10.86212826 0.84127897 2.16701508 12 13 13
-10.85562229 0.84019500 2.16401601 13 14 11
-10.84983826 0.84018397 2.16401196 2 2 2
-10.84405327 0.84017402 2.16400909 38 61 57
-10.83826923 0.84016401 2.16400504 16 45 32
-10.83248520 0.84015399 2.16400099 16 39 36
-10.82624531 0.83942699 2.16200089 24 34 29
-10.82046509 0.83941698 2.16199708 13 16 8
-10.81468487 0.83940703 2.16199303 13 14 11
-10.80890465 0.83939600 2.16198897 12 12 11
-10.80312538 0.83938599 2.16198492 11 12 8
-10.79734516 0.83937597 2.16198206 13 12 8
-10.79156494 0.83936602 2.16197801 11 12 8
-10.78578472 0.83935499 2.16197395 11 11 11
-10.78000546 0.83934498 2.16196990 13 12 12
-10.72567463 0.83495599 2.14995694 12 12 12
-10.71934891 0.83387202 2.14695907 14 12 11
-10.71360111 0.83386201 2.14695501 13 13 12
-10.70785236 0.83385098 2.14695096 13 12 12
-10.70210361 0.83384103 2.14694691 12 12 12
-10.69635487 0.83383101 2.14694405 12 12 12
-10.69060707 0.83382100 2.14693999 12 12 12
-10.68485832 0.83381099 2.14693594 17 15 16
-10.67910957 0.83380097 2.14693189 16 14 15
-10.67301369 0.83307397 2.14493203 16 15 16
-10.66675472 0.83199000 2.14193392 15 14 18
-10.66101742 0.83197999 2.14193010 15 15 15
-10.65527916 0.83196998 2.14192605 13 13 13
-10.64954090 0.83195901 2.14192200 13 13 12
-10.64380360 0.83194900 2.14191794 14 14 13
-10.63774300 0.83122301 2.13991809 15 16 12
-10.63201046 0.83121300 2.13991404 15 15 15
-10.62580490 0.83012903 2.13691592 13 16 17
-10.61976910 0.82940298 2.13491607 14 15 14
-10.61404514 0.82939202 2.13491201 15 15 15
-10.60787010 0.82830799 2.13191390 14 15 15
-10.60215378 0.82829797 2.13191009 15 15 15
-10.59614372 0.82757199 2.12990999 15 15 15
-10.59014320 0.82684600 2.12790990 14 14 14
-10.58400822 0.82576197 2.12491107 13 15 15
-10.57802486 0.82503599 2.12291098 14 14 14
-10.57191372 0.82395202 2.11991310 12 12 12
-10.56622219 0.82394201 2.11990905 13 14 13
-10.55986118 0.82214200 2.11491489 11 13 13
-10.55391693 0.82141602 2.11291504 13 13 12
-10.54759216 0.81961602 2.10791993 13 13 12
-10.54141617 0.81817400 2.10392404 12 12 12
-10.53538227 0.81708997 2.10092497 13 13 12
-10.52948284 0.81636399 2.09892511 13 13 13
-10.52347183 0.81528002 2.09592700 15 15 15
-10.51783085 0.81527001 2.09592295 16 16 16
-10.51195621 0.81454402 2.09392309 16 16 16
-10.50574398 0.81274402 2.08892894 16 16 17
-10.50011826 0.81273401 2.08892488 15 15 16
-10.49427032 0.81200898 2.08692503 15 15 15
-10.48843002 0.81128299 2.08492494 12 12 12
-10.48249245 0.81019902 2.08192706 13 13 13
-10.47667217 0.80947298 2.07992697 13 13 13
-10.47055340 0.80767399 2.07493210 12 12 11
-10.46455479 0.80623198 2.07093596 13 13 13
-10.45847607 0.80443299 2.06594110 13 13 13
-10.45270634 0.80370700 2.06394100 15 13 13
-10.44666195 0.80190700 2.05894709 16 15 16
-10.44064045 0.80010802 2.05395293 15 15 15
-10.43472767 0.79866701 2.04995608 15 15 15
-10.42900753 0.79794103 2.04795599 17 15 15
-10.42321110 0.79685700 2.04495811 15 14 14
-10.41751003 0.79613203 2.04295802 14 14 15
-10.41157436 0.79433298 2.03796411 15 15 16
-10.40573788 0.79289103 2.03396797 15 15 15
-10.39984131 0.79109198 2.02897310 16 16 16
-10.39419079 0.79036701 2.02697396 15 17 17
-10.38840294 0.78892499 2.02297711 17 17 16
-10.38241959 0.78641099 2.01598692 15 15 15
-10.37646580 0.78389603 2.00899601 15 15 16
-10.37060833 0.78173900 2.00300407 17 15 15
-10.36470985 0.77922398 1.99601305 18 16 16
-10.35902977 0.77778298 1.99201703 17 15 15
-10.35342598 0.77670002 1.98901904 16 16 16
-10.34777737 0.77525902 1.98502302 17 17 17
-10.34225559 0.77453399 1.98302305 14 16 16
-10.33663559 0.77309299 1.97902703 15 17 17
-10.33108521 0.77201003 1.97602904 15 16 16
-10.32549667 0.77056903 1.97203302 17 17 17
-10.31959057 0.76662302 1.96105003 14 16 15
-10.31386948 0.76375097 1.95306206 18 17 13
-10.30813694 0.76052099 1.94407499 15 17 16
-10.30264854 0.75908101 1.94007897 15 17 17
-10.29717827 0.75764000 1.93608296 16 18 18
-10.29146385 0.75369501 1.92510104 17 17 17
-10.28611183 0.75296998 1.92310095 16 16 17
-10.28076839 0.75224501 1.92110097 16 16 16
-10.27524662 0.74937302 1.91311300 16 16 16
-10.26987457 0.74793202 1.90911698 17 17 17
-10.26457310 0.74720800 1.90711701 17 17 17
-10.25918102 0.74505198 1.90112495 18 19 19
-10.25367928 0.74074900 1.88914502 19 19 18
-10.24831009 0.73787701 1.88115597 17 17 14
-10.24312019 0.73786801 1.88115299 17 15 14
-10.23793030 0.73785901 1.88115001 17 15 15
-10.23271179 0.73713398 1.87915003 18 16 16
-10.22752571 0.73712498 1.87914598 18 16 16
-10.22222233 0.73282301 1.86716604 16 16 16
-11.48841858 0.67581099 1.68931901 17 17 17
-11.48081303 0.67399800 1.68432295 16 16 16
-11.47603893 0.67399001 1.68431997 17 17 17
-11.47406387 0.67578501 1.68930900 18 18 18
-11.47206879 0.67758101 1.69429803 15 17 17
-11.47116375 0.68009800 1.70128405 16 18 19
-11.47022915 0.68261600 1.70826995 21 21 21
-11.46761036 0.68405002 1.71226096 18 20 20
-11.46332741 0.68440300 1.71325600 19 21 20
-11.45849228 0.68439400 1.71325302 20 20 19
-11.45692825 0.68655002 1.71923995 19 19 19
-11.45370865 0.68762398 1.72223198 17 17 17
-11.44993687 0.68833703 1.72422600 17 17 17
-11.44615746 0.68905002 1.72621906 15 17 17
-11.44558907 0.69192803 1.73420405 15 15 15
-11.44498825 0.69480598 1.74218798 15 15 15
-11.44275475 0.69660097 1.74717700 17 17 17
-11.44156170 0.69911802 1.75416303 15 17 17
-11.43769741 0.69983101 1.75615597 16 16 15
-11.43856239 0.70379102 1.76713598 16 16 16
-11.43570995 0.70522499 1.77112603 17 17 17
-11.43127537 0.70557702 1.77212095 18 18 19
-11.42735577 0.70629001 1.77411497 17 17 17
-11.42550087 0.70844603 1.78010201 17 17 17
-11.42310429 0.71024102 1.78509104 17 17 17
-11.42017174 0.71167499 1.78908098 18 18 18
-11.41824818 0.71382999 1.79506803 17 17 17
-11.41476917 0.71490401 1.79806006 18 18 18
-11.41635227 0.71958500 1.81103599 18 18 18
-11.41232204 0.72029698 1.81303000 17 17 18
-11.40828323 0.72101003 1.81502295 19 17 17
-11.40624046 0.72316498 1.82100999 16 16 15
-11.40517139 0.72604197 1.82899404 15 13 12
-11.40108585 0.72675502 1.83098805 15 13 12
-11.39748669 0.72782803 1.83397996 14 12 12
-11.39338398 0.72854000 1.83597302 16 16 16
-11.39025307 0.72997397 1.83996296 13 13 12
-11.38612843 0.73068601 1.84195697 14 14 14
-11.38296795 0.73211998 1.84594703 13 13 12
-11.37979126 0.73355401 1.84993696 13 13 13
-11.37852573 0.73643100 1.85792100 14 12 12
-11.37530708 0.73786402 1.86191106 13 13 12
-11.37302685 0.74001902 1.86789799 13 13 12
-11.36977005 0.74145299 1.87188804 13 13 13
-11.36649704 0.74288702 1.87587798 13 13 14
-11.36320591 0.74431998 1.87986803 13 13 13
-11.36083794 0.74647498 1.88585496 13 13 12
-11.35750961 0.74790800 1.88984501 12 12 11
-11.35323429 0.74862099 1.89183903 13 13 13
-11.34895039 0.74933302 1.89383197 15 13 12
-11.34650230 0.75148702 1.89981902 14 14 14
-11.34311104 0.75292099 1.90380895 14 14 14
-11.34061718 0.75507599 1.90979600 15 15 15
-11.33809757 0.75722998 1.91578305 15 15 16
-11.33464813 0.75866300 1.91977298 15 15 16
-11.33028030 0.75937498 1.92176604 15 15 16
-11.32680035 0.76080900 1.92575598 16 14 15
-11.32285786 0.76188099 1.92874801 15 13 13
-11.32112503 0.76475698 1.93673098 14 14 14
-11.31758785 0.76618999 1.94072104 13 13 14
-11.31315517 0.76690203 1.94271398 13 13 14
-11.30959034 0.76833498 1.94670403 13 13 13
-11.30644321 0.77012902 1.95169306 15 13 13
-11.30197430 0.77083999 1.95368600 12 12 12
-11.29749680 0.77155203 1.95567906 14 14 14
-11.29473019 0.77370602 1.96166599 13 13 12
-11.29236603 0.77622098 1.96865106 13 13 12
-11.28869534 0.77765399 1.97264004 14 13 9
-11.28416061 0.77836603 1.97463405 13 13 12
-11.27961922 0.77907699 1.97662699 15 15 15
-11.27548695 0.78015000 1.97961795 15 13 13
-11.27092457 0.78086102 1.98161101 13 13 12
-11.26801586 0.78301501 1.98759794 13 13 12
-11.26342869 0.78372699 1.98959100 14 12 11
-11.26006699 0.78552002 1.99457896 16 12 11
-11.25545692 0.78623199 1.99657202 14 12 11
-11.25083923 0.78694302 1.99856496 12 12 11
-11.24621201 0.78765500 2.00055790 12 13 9
-11.24359035 0.79016900 2.00754309 14 13 9
-11.23893642 0.79088002 2.00953603 11 11 10
-11.23427391 0.79159200 2.01152897 11 11 11
-11.23158360 0.79410601 2.01851392 13 11 11
-11.22807693 0.79589897 2.02350211 13 12 8
-11.22337246 0.79661000 2.02549505 12 13 9
-11.21866035 0.79732198 2.02748799 13 13 12
-11.21393871 0.79803300 2.02948093 15 13 13
-11.20959473 0.79910499 2.03247309 13 13 13
-11.20638943 0.80125803 2.03845906 13 13 12
-11.20277691 0.80305099 2.04344702 12 12 11
-11.19724655 0.80304098 2.04344296 12 12 12
-11.19247055 0.80375302 2.04543591 16 14 14
-11.18693733 0.80374300 2.04543304 16 18 18
-11.18252182 0.80481499 2.04842401 13 27 24
-11.17772293 0.80552602 2.05041695 22 55 44
-11.02712822 0.70234299 1.76486802 13 15 15
-11.02148342 0.70161301 1.76286805 12 16 15
-11.07277966 0.83052999 2.12021303 12 12 11
-11.06708813 0.83051902 2.12020898 12 12 11
-11.06139660 0.83050901 2.12020612 12 13 9
-11.05570507 0.83049899 2.12020206 13 11 10
-11.05001259 0.83048898 2.12019801 14 12 12
-11.04432106 0.83047903 2.12019396 14 12 12
-11.03862858 0.83046901 2.12019110 12 12 12
-11.03386211 0.83153999 2.12318206 12 12 11
-11.02816296 0.83152997 2.12317801 12 12 12
-11.02307320 0.83224100 2.12517095 11 13 13
-11.01827621 0.83331198 2.12816191 10 12 12
-11.01316643 0.83402300 2.13015509 12 12 12
-11.00804901 0.83473301 2.13214707 10 13 9
-11.00321770 0.83580399 2.13513803 14 13 9
-10.99749374 0.83579397 2.13513494 12 14 14
-10.99235439 0.83650500 2.13712692 15 15 15
-10.98662567 0.83649403 2.13712406 14 14 13
-10.98176003 0.83756500 2.14011502 11 13 12
-10.97602558 0.83755499 2.14011097 15 13 13
-10.97085762 0.83826602 2.14210391 12 12 12
-10.96512032 0.83825600 2.14210010 13 13 13
-10.95938206 0.83824599 2.14209604 13 13 13
-10.95364380 0.83823502 2.14209199 13 13 13
-10.94872856 0.83930600 2.14508295 12 12 12
-10.94298458 0.83929598 2.14507890 14 12 12
-10.93723965 0.83928603 2.14507604 12 12 11
-10.93149567 0.83927602 2.14507198 10 12 12
-10.92628384 0.83998603 2.14706397 13 13 13
-10.92053509 0.83997601 2.14706111 12 12 12
-10.91557217 0.84104699 2.15005207 12 12 13
-10.90981674 0.84103698 2.15004802 14 12 13
-10.90457821 0.84174699 2.15204096 13 13 13
-10.89958477 0.84281802 2.15503097 12 12 12
-10.89381981 0.84280801 2.15502810 13 13 13
-10.88855743 0.84351802 2.15702009 14 14 15
-10.88328648 0.84422803 2.15901303 12 12 11
-10.87825394 0.84529901 2.16200399 13 13 12
-10.87296391 0.84600902 2.16399693 13 13 12
-10.86717987 0.84599900 2.16399288 13 13 13
-10.86211777 0.84706998 2.16698408 13 13 12
-10.85632801 0.84705901 2.16698003 9 14 10
-10.84982681 0.84596801 2.16398096 7 12 10
-10.84404278 0.84595799 2.16397691 38 59 55
-10.83825874 0.84594798 2.16397405 17 44 28
-10.83201408 0.84521699 2.16197300 18 49 36
-10.82623386 0.84520698 2.16196990 27 31 25
-10.82045364 0.84519702 2.16196609 12 12 11
-10.81467438 0.84518600 2.16196203 14 14 14
-10.80889511 0.84517598 2.16195798 12 12 11
-10.80311489 0.84516603 2.16195393 12 12 11
-10.79733467 0.84515601 2.16195011 12 12 11
-10.79090786 0.84406501 2.15895200 10 12 11
-10.78577518 0.84513497 2.16194296 11 11 11
-10.77999496 0.84512502 2.16193891 11 11 11
-10.72566509 0.84071100 2.14992595 14 12 12
-10.71933937 0.83961999 2.14692807 14 12 12
-10.71359062 0.83960998 2.14692402 12 12 12
-10.70784187 0.83960003 2.14691997 13 13 12
-10.70209408 0.83959001 2.14691591 15 13 13
-10.69634533 0.83957899 2.14691305 12 12 12
-10.69059658 0.83956897 2.14690900 13 13 13
-10.68484783 0.83955902 2.14690495 13 13 14
-10.67910004 0.83954901 2.14690089 15 13 14
-10.67300415 0.83881801 2.14490104 14 14 14
-10.66674519 0.83772802 2.14190292 14 14 15
-10.66100693 0.83771801 2.14189911 16 16 17
-10.65526867 0.83770698 2.14189506 15 15 15
-10.64953136 0.83769703 2.14189100 15 15 14
-10.64379311 0.83768702 2.14188790 16 16 16
-10.63773346 0.83695698 2.13988709 17 15 15
-10.63199997 0.83694702 2.13988400 15 15 14
-10.62579536 0.83585602 2.13688493 16 16 15
-10.62006760 0.83584601 2.13688207 16 16 15
-10.61403465 0.83511603 2.13488102 16 16 16
-10.60785961 0.83402503 2.13188291 15 15 16
-10.60214329 0.83401501 2.13187909 15 15 16
-10.59613419 0.83328497 2.12987900 16 16 17
-10.59013271 0.83255398 2.12787890 15 15 16
-10.58399773 0.83146399 2.12488103 16 16 16
-10.57801533 0.83073401 2.12288094 14 14 14
-10.57231712 0.83072400 2.12287688 14 14 14
-10.56621170 0.82963300 2.11987901 15 15 15
-10.56025219 0.82890302 2.11787891 15 15 15
-10.55390739 0.82709301 2.11288404 13 13 12
-10.54758167 0.82528198 2.10788894 13 13 12
-10.54140568 0.82383198 2.10389304 13 13 13
-10.53537178 0.82274199 2.10089493 15 15 15
-10.52947330 0.82201099 2.09889507 13 13 13
-10.52346230 0.82092100 2.09589696 14 14 14
-10.51782131 0.82091099 2.09589291 15 15 15
-10.51194572 0.82018101 2.09389305 16 16 16
-10.50573444 0.81837100 2.08889794 17 17 18
-10.50010777 0.81836098 2.08889508 14 14 14
-10.49425983 0.81763101 2.08689499 15 13 13
-10.48841953 0.81690103 2.08489490 13 13 14
-10.48248291 0.81581098 2.08189607 15 13 13
-10.47666168 0.81508100 2.07989597 12 12 11
-10.47054291 0.81327099 2.07490206 13 13 12
-10.46454525 0.81182098 2.07090592 13 13 12
-10.45846558 0.81001103 2.06591105 15 15 15
-10.45269585 0.80928099 2.06391096 16 16 16
-10.44665241 0.80747098 2.05891705 15 13 14
-10.44062996 0.80566102 2.05392289 13 13 13
-10.43471813 0.80421102 2.04992604 15 15 15
-10.42899799 0.80348098 2.04792690 16 16 16
-10.42320156 0.80239201 2.04492807 16 16 16
-10.41750145 0.80166203 2.04292893 13 13 13
-10.41156387 0.79985201 2.03793406 15 15 15
-10.40572834 0.79840201 2.03393793 13 15 14
-10.39983177 0.79659301 2.02894402 18 17 13
-10.39418125 0.79586297 2.02694392 16 16 15
-10.38817501 0.79333401 2.01995301 16 16 16
-10.38226795 0.79116398 2.01396108 16 16 16
-10.37645626 0.78935403 2.00896692 16 16 17
-10.37059784 0.78718501 2.00297499 16 16 17
-10.36470127 0.78465599 1.99598396 16 16 16
-10.35902023 0.78320599 1.99198794 16 16 16
-10.35341644 0.78211701 1.98898995 16 16 16
-10.34788322 0.78138697 1.98698997 17 17 17
-10.34224701 0.77993798 1.98299396 16 16 16
-10.33662701 0.77848899 1.97899795 15 17 17
-10.33107471 0.77739900 1.97599995 15 17 17
-10.32528782 0.77451003 1.96801198 16 16 16
-10.31948662 0.77126098 1.95902503 15 17 17
-10.31385994 0.76909202 1.95303297 17 17 16
-10.30812740 0.76584297 1.94404697 13 17 17
-10.30263996 0.76439399 1.94005096 15 19 19
-10.29716873 0.76294500 1.93605494 16 18 18
-10.29156590 0.76005697 1.92806697 18 18 18
-10.28610229 0.75824797 1.92307305 17 17 18
-10.28075790 0.75751901 1.92107296 17 17 17
-10.27523804 0.75463003 1.91308498 16 16 16
-10.26986599 0.75318098 1.90908897 17 17 17
-10.26456261 0.75245202 1.90708899 18 18 18
-10.25917244 0.75028300 1.90109706 19 19 19
-10.25366974 0.74595600 1.88911700 18 18 19
-10.24830055 0.74306703 1.88112795 17 17 17
-10.24307442 0.74233800 1.87912905 17 15 14
-10.23788834 0.74232900 1.87912500 19 15 14
-10.23267365 0.74159998 1.87712598 16 14 14
-10.22746944 0.74087101 1.87512600 19 17 18
-10.22221279 0.73798299 1.86713803 17 17 18
-11.50628281 0.66795897 1.65437198 19 19 18
-11.50157166 0.66795099 1.65436900 19 19 19
-11.49859715 0.66903102 1.65736103 20 22 22
-11.49387932 0.66902298 1.65735805 19 19 19
-11.49145985 0.67046601 1.66134906 18 18 18
-11.48673439 0.67045802 1.66134596 18 19 17
-11.48771191 0.67407900 1.67132699 17 18 14
-11.48296547 0.67407101 1.67132401 17 17 17
-11.47878456 0.67442501 1.67231905 17 17 18
-11.47516441 0.67514300 1.67431295 17 18 19
-11.47322083 0.67694902 1.67930198 18 18 19
-11.47013664 0.67802900 1.68229401 19 19 19
-11.46759796 0.67947298 1.68628502 17 19 19
-11.46559811 0.68127900 1.69127405 16 20 20
-11.46634483 0.68489999 1.70125496 20 24 24
-11.46649933 0.68815798 1.71023798 22 25 24
-11.46276855 0.68887502 1.71223104 20 23 23
-11.45848274 0.68922901 1.71322703 23 23 23
-11.45582867 0.69067198 1.71721697 20 20 20
-11.45370102 0.69247800 1.72220600 16 16 16
-11.44992924 0.69319600 1.72420001 16 16 16
-11.44614792 0.69391298 1.72619295 16 16 16
-11.44504356 0.69644397 1.73317897 17 17 17
-11.44497871 0.69970202 1.74216199 17 17 17
-11.44274616 0.70150799 1.74714994 16 16 15
-11.44155312 0.70403898 1.75413597 16 16 15
-11.43768883 0.70475602 1.75612998 16 16 16
-11.43750000 0.70801300 1.76511204 16 16 16
-11.43465328 0.70945603 1.76910198 18 18 18
-11.43074417 0.71017301 1.77109599 17 17 17
-11.42734718 0.71125299 1.77408803 17 17 17
-11.42445564 0.71269602 1.77807796 17 17 18
-11.42206287 0.71450102 1.78306699 17 17 18
-11.41913605 0.71594399 1.78705704 18 16 17
-11.41619205 0.71738601 1.79104805 16 16 17
-11.41374111 0.71919203 1.79603601 18 17 17
-11.41583538 0.72426301 1.81001103 18 17 17
-11.41231346 0.72534198 1.81300294 16 16 16
-11.40827370 0.72605902 1.81499600 16 15 15
-11.40623093 0.72822702 1.82098305 16 16 16
-11.40516186 0.73112100 1.82896698 15 15 15
-11.40107727 0.73183697 1.83096004 16 16 16
-11.39747810 0.73291701 1.83395195 14 12 12
-11.39337540 0.73363400 1.83594596 12 12 11
-11.38926315 0.73435003 1.83793902 13 13 13
-11.38611889 0.73579198 1.84192896 13 13 13
-11.38198566 0.73650903 1.84392297 13 13 13
-11.37881279 0.73795098 1.84791303 13 13 13
-11.37851715 0.74157000 1.85789299 13 13 14
-11.37529755 0.74301201 1.86188304 12 14 13
-11.37301826 0.74518001 1.86786997 12 12 11
-11.37071323 0.74734700 1.87385702 12 12 12
-11.36648846 0.74806398 1.87584996 14 14 14
-11.36319733 0.74950600 1.87984097 14 14 14
-11.36082935 0.75167298 1.88582695 15 14 14
-11.35750103 0.75311500 1.88981700 15 15 15
-11.35322475 0.75383198 1.89181101 13 13 13
-11.34894085 0.75454801 1.89380395 16 14 14
-11.34649277 0.75671500 1.89979100 14 14 14
-11.34310246 0.75815701 1.90378106 14 14 14
-11.34060764 0.76032400 1.90976799 16 14 14
-11.33717918 0.76176602 1.91375804 15 13 13
-11.33463860 0.76393300 1.91974401 16 14 14
-11.33026981 0.76464897 1.92173803 16 14 14
-11.32589436 0.76536500 1.92373097 17 13 17
-11.32150936 0.76608199 1.92572403 15 12 14
-11.32022572 0.76933700 1.93470597 14 12 12
-11.31669426 0.77077800 1.93869603 15 12 12
-11.31314564 0.77222002 1.94268596 13 13 14
-11.30870438 0.77293599 1.94467902 13 13 13
-11.30556202 0.77473998 1.94966698 12 12 12
-11.30196476 0.77618200 1.95365703 14 14 14
-11.29748726 0.77689803 1.95564997 12 12 12
-11.29472065 0.77906400 1.96163702 15 16 15
-11.29235554 0.78159398 1.96862197 13 13 11
-11.28868580 0.78303498 1.97261095 12 12 11
-11.28415203 0.78375101 1.97460496 12 12 11
-11.27960873 0.78446698 1.97659802 13 13 12
-11.27547741 0.78554499 1.97958899 14 12 11
-11.27091599 0.78626102 1.98158205 12 13 9
-11.26800632 0.78842801 1.98756897 14 12 11
-11.26342010 0.78914303 1.98956203 15 13 12
-11.25923538 0.79022199 1.99255300 17 13 12
-11.25463009 0.79093802 1.99454606 15 13 12
-11.25001621 0.79165298 1.99653900 14 13 9
-11.24620342 0.79309398 2.00052905 14 13 9
-11.24357986 0.79562300 2.00751400 12 12 11
-11.23892593 0.79633898 2.00950694 12 12 11
-11.23426437 0.79705501 2.01149988 11 11 10
-11.23157406 0.79958397 2.01848507 13 11 10
-11.22688484 0.80029899 2.02047801 13 11 11
-11.22257900 0.80137700 2.02346897 12 12 12
-11.21864986 0.80281800 2.02745891 12 12 12
-11.21315384 0.80280900 2.02745509 13 13 13
-11.20958519 0.80461198 2.03244305 13 13 14
-11.20561314 0.80605298 2.03643298 12 12 12
-11.20200443 0.80785602 2.04142094 12 12 12
-11.19723701 0.80857199 2.04341412 12 12 12
-11.19246197 0.80928701 2.04540706 17 15 14
-11.18692684 0.80927700 2.04540300 10 12 12
-11.18251228 0.81035501 2.04839396 19 30 30
-11.17771435 0.81107098 2.05038691 20 48 44
-11.07212543 0.83549601 2.11818600 12 11 10
-11.06707764 0.83621103 2.12017894 12 12 12
-11.06075001 0.83547598 2.11817789 12 12 12
-11.05506229 0.83546603 2.11817503 12 12 12
-11.05000305 0.83618098 2.12016702 12 12 11
-11.04431057 0.83617097 2.12016392 14 12 11
-11.03861904 0.83616102 2.12016010 11 11 10
-11.03385162 0.83723801 2.12315106 13 12 8
-11.02815342 0.83722800 2.12314701 9 12 8
-11.02306271 0.83794302 2.12513995 11 11 10
-11.01826572 0.83902001 2.12813091 11 12 9
-11.01315594 0.83973497 2.13012409 11 11 10
-11.00803757 0.84044999 2.13211703 9 11 11
-11.00320816 0.84152699 2.13510799 13 13 14
-10.99748421 0.84151697 2.13510394 14 14 14
-10.99234295 0.84223199 2.13709593 14 14 14
-10.98661613 0.84222198 2.13709307 13 13 12
-10.98174858 0.84329897 2.14008403 11 13 13
-10.97601604 0.84328902 2.14007998 13 13 13
-10.97028160 0.84327900 2.14007592 13 13 13
-10.96510887 0.84399402 2.14206910 13 13 13
-10.95937157 0.84398299 2.14206505 13 13 13
-10.95363426 0.84397298 2.14206100 11 11 11
-10.94871902 0.84504998 2.14505196 12 12 12
-10.94297409 0.84504002 2.14504790 11 11 11
-10.93723011 0.84503001 2.14504504 12 12 11
-10.93148613 0.84502000 2.14504099 10 14 14
-10.92627430 0.84573501 2.14703393 14 14 14
-10.92052460 0.84572399 2.14703012 12 12 12
-10.91477680 0.84571397 2.14702606 14 11 12
-10.90980721 0.84679103 2.15001702 13 11 11
-10.90405273 0.84678102 2.15001297 11 11 11
-10.89880943 0.84749597 2.15200591 12 12 12
-10.89305019 0.84748602 2.15200210 14 12 12
-10.88804531 0.84856302 2.15499306 14 12 12
-10.88277817 0.84927702 2.15698504 12 12 12
-10.87750340 0.84999198 2.15897799 12 13 12
-10.87246418 0.85106897 2.16196895 12 12 11
-10.86717033 0.85178298 2.16396189 12 12 11
-10.86138630 0.85177302 2.16395807 12 12 11
-10.85560131 0.85176301 2.16395402 8 13 9
-10.84981728 0.85175198 2.16394997 2 10 8
-10.84403324 0.85174203 2.16394591 34 56 50
-10.83778381 0.85100698 2.16194606 16 46 31
-10.83200359 0.85099697 2.16194201 22 55 45
-10.82622433 0.85098702 2.16193795 30 31 27
-10.82044411 0.85097700 2.16193509 13 14 5
-10.81466389 0.85096598 2.16193104 14 15 11
-10.80888367 0.85095602 2.16192698 14 12 12
-10.80244541 0.84985900 2.15892911 12 12 11
-10.79667091 0.84984899 2.15892506 13 12 8
-10.79089832 0.84983802 2.15892100 11 11 9
-10.78512383 0.84982800 2.15891695 11 11 11
-10.77935028 0.84981799 2.15891290 12 12 12
-10.77420521 0.85089499 2.16190410 12 11 11
-10.76780319 0.84979802 2.15890598 13 11 10
-10.73814774 0.84829700 2.15489411 13 11 12
-10.73238277 0.84828699 2.15489006 14 12 13
-10.72565460 0.84646600 2.14989495 13 11 11
-10.71932888 0.84536803 2.14689708 13 11 11
-10.71358013 0.84535801 2.14689302 11 12 8
-10.70783234 0.84534800 2.14688897 11 11 10
-10.70208263 0.84533799 2.14688492 12 12 12
-10.69633484 0.84532797 2.14688206 12 12 12
-10.69058704 0.84531802 2.14687800 13 12 12
-10.68483829 0.84530699 2.14687395 12 12 12
-10.67908955 0.84529698 2.14686990 14 12 12
-10.67299366 0.84456301 2.14487004 13 13 12
-10.66673470 0.84346598 2.14187193 13 13 13
-10.66099739 0.84345597 2.14186811 14 14 14
-10.65525913 0.84344500 2.14186406 14 14 13
-10.64952087 0.84343499 2.14186001 16 16 15
-10.64378262 0.84342498 2.14185691 17 15 15
-10.63772297 0.84268999 2.13985705 17 15 15
-10.63198853 0.84267998 2.13985300 15 15 15
-10.62578487 0.84158301 2.13685393 16 16 16
-10.62005806 0.84157300 2.13685107 14 16 16
-10.61402512 0.84083903 2.13485098 14 16 16
-10.60785007 0.83974200 2.13185191 16 16 16
-10.60213280 0.83973199 2.13184810 17 17 17
-10.59612370 0.83899701 2.12984800 16 16 17
-10.59012318 0.83826298 2.12784791 17 17 18
-10.58398819 0.83716601 2.12485003 16 16 17
-10.57800484 0.83643198 2.12284994 16 16 16
-10.57230663 0.83642203 2.12284589 15 15 15
-10.56620216 0.83532500 2.11984801 15 15 15
-10.56024170 0.83459097 2.11784792 16 16 16
-10.55389690 0.83276999 2.11285305 15 15 15
-10.54757214 0.83094901 2.10785890 14 14 13
-10.54139614 0.82949001 2.10386300 13 13 12
-10.53536224 0.82839298 2.10086393 13 13 13
-10.52946281 0.82765901 2.09886408 14 14 14
-10.52345181 0.82656300 2.09586596 16 16 16
-10.51781082 0.82655299 2.09586191 14 14 14
-10.51193619 0.82581800 2.09386206 15 15 15
-10.50572395 0.82399797 2.08886790 15 15 15
-10.50009823 0.82398802 2.08886409 14 14 14
-10.49425030 0.82325298 2.08686399 15 12 12
-10.48841000 0.82251900 2.08486390 14 12 12
-10.48247337 0.82142299 2.08186603 14 12 12
-10.47665215 0.82068902 2.07986593 14 14 14
-10.47053337 0.81886798 2.07487202 14 14 14
-10.46453476 0.81740999 2.07087588 15 15 15
-10.45845604 0.81558901 2.06588101 15 15 14
-10.45268631 0.81485498 2.06388092 15 15 15
-10.44682980 0.81375903 2.06088305 15 15 16
-10.44062042 0.81121403 2.05389309 15 15 15
-10.43470860 0.80975598 2.04989696 15 15 15
-10.42898941 0.80902201 2.04789710 12 14 14
-10.42319202 0.80792600 2.04489899 14 16 16
-10.41749096 0.80719203 2.04289889 14 16 16
-10.41155529 0.80537200 2.03790498 14 14 13
-10.40571785 0.80391401 2.03390789 15 16 16
-10.39982224 0.80209303 2.02891397 16 16 15
-10.39417076 0.80136001 2.02691388 14 14 14
-10.38801861 0.79809099 2.01792789 15 15 15
-10.38225937 0.79663301 2.01393199 15 15 15
-10.37644577 0.79481298 2.00893688 15 15 15
-10.37058830 0.79263097 2.00294495 15 15 15
-10.36456203 0.78936303 1.99395895 15 15 15
-10.35901070 0.78862900 1.99195898 16 16 16
-10.35340691 0.78753299 1.98896098 15 15 15
-10.34787369 0.78680003 1.98696101 16 16 16
-10.34223747 0.78534198 1.98296499 16 16 16
-10.33661747 0.78388399 1.97896898 17 17 17
-10.33106613 0.78278899 1.97597098 15 16 17
-10.32527924 0.77988303 1.96798301 16 16 17
-10.31938171 0.77589101 1.95700002 16 16 17
-10.31385040 0.77443302 1.95300400 15 17 17
-10.30811787 0.77116603 1.94401801 14 17 17
-10.30263042 0.76970798 1.94002199 17 17 17
-10.29716015 0.76825100 1.93602598 16 16 16
-10.29155731 0.76534498 1.92803800 16 16 16
-10.28609276 0.76352602 1.92304397 16 16 16
-10.28074932 0.76279199 1.92104495 15 15 15
-10.27522755 0.75988698 1.91305602 17 17 17
-10.26985645 0.75843000 1.90906096 18 18 18
-10.26455402 0.75769699 1.90706098 19 19 19
-10.25916195 0.75551498 1.90106905 18 18 18
-10.25366116 0.75116199 1.88908899 17 17 17
-10.24829102 0.74825698 1.88110006 17 17 13
-10.24306488 0.74752402 1.87910104 17 16 13
-10.23784733 0.74679101 1.87710094 16 14 13
-10.23252487 0.74316198 1.86711705 16 14 14
-10.22736359 0.74315298 1.86711395 18 16 16
-10.22214508 0.74097198 1.86112201 18 16 17
-11.50627518 0.67267001 1.65434694 21 21 21
-11.50156403 0.67266202 1.65434396 20 21 21
-11.49685192 0.67265302 1.65434098 19 19 19
-11.49387074 0.67374003 1.65733302 18 18 18
-11.49030304 0.67446202 1.65932703 18 18 18
-11.48672581 0.67518401 1.66131997 16 17 14
-11.48371124 0.67627102 1.66431296 15 17 16
-11.48068428 0.67735702 1.66730499 18 18 17
-11.47707844 0.67807901 1.66929805 18 18 18
-11.47346306 0.67880100 1.67129195 18 18 18
-11.46927834 0.67915797 1.67228699 20 20 20
-11.46844769 0.68170398 1.67927301 19 19 20
-11.46535778 0.68279099 1.68226504 22 23 23
-11.46281147 0.68424302 1.68625605 20 25 25
-11.46578312 0.68934500 1.70023096 21 25 25
-11.46538734 0.69225597 1.70821500 22 25 24
-11.46275997 0.69370800 1.71220505 21 23 22
-11.45792675 0.69369900 1.71220195 22 23 22
-11.45473003 0.69478601 1.71519399 19 19 19
-11.45369244 0.69733202 1.72218001 17 18 18
-11.44991970 0.69805402 1.72417295 17 18 18
-11.44614029 0.69877499 1.72616696 19 18 17
-11.44503498 0.70132101 1.73315299 18 18 17
-11.44497013 0.70459801 1.74213505 18 18 17
-11.44273663 0.70641398 1.74712396 16 18 16
-11.44154358 0.70896000 1.75410998 17 17 17
-11.43768024 0.70968199 1.75610304 16 16 14
-11.43643856 0.71222800 1.76308894 14 15 12
-11.43464375 0.71440899 1.76907599 13 14 13
-11.43073559 0.71512997 1.77106905 14 14 13
-11.42629910 0.71548599 1.77206397 16 16 16
-11.42341137 0.71693701 1.77605498 16 16 16
-11.42205524 0.71948302 1.78304005 16 16 17
-11.41810036 0.72020400 1.78503394 18 16 16
-11.41618347 0.72238499 1.79102099 16 15 15
-11.41322231 0.72383600 1.79501104 19 17 17
-11.41075230 0.72565198 1.79999995 19 16 16
-11.41230392 0.73038697 1.81297505 16 15 13
-11.40826511 0.73110801 1.81496894 15 15 13
-11.40622234 0.73328900 1.82095599 14 14 13
-11.40515327 0.73619902 1.82894003 12 13 12
-11.40106773 0.73692000 1.83093297 14 13 13
-11.39647961 0.73727602 1.83192801 14 12 11
-11.39336586 0.73872697 1.83591795 13 13 10
-11.38925362 0.73944801 1.83791196 13 13 13
-11.38611031 0.74089801 1.84190202 13 13 14
-11.38197708 0.74161899 1.84389496 13 15 15
-11.37880421 0.74307001 1.84788501 13 13 13
-11.37850761 0.74671000 1.85786605 14 14 14
-11.37528896 0.74816000 1.86185598 12 13 13
-11.37396526 0.75107002 1.86983895 12 12 12
-11.37070370 0.75252098 1.87382901 12 13 12
-11.36647797 0.75324100 1.87582302 13 13 12
-11.36318779 0.75469202 1.87981296 14 14 13
-11.36081982 0.75687200 1.88579905 15 15 15
-11.35749245 0.75832200 1.88978899 13 13 13
-11.35321617 0.75904202 1.89178300 14 14 14
-11.34893131 0.75976300 1.89377606 13 13 12
-11.34648418 0.76194298 1.89976299 15 13 12
-11.34309292 0.76339298 1.90375304 13 13 12
-11.33968353 0.76484299 1.90774298 14 13 10
-11.33625984 0.76629299 1.91173303 14 12 11
-11.33372402 0.76847303 1.91771901 15 13 13
-11.32936001 0.76919401 1.91971195 16 13 13
-11.32588387 0.77064401 1.92370200 17 14 14
-11.32149887 0.77136397 1.92569602 15 12 12
-11.31843853 0.77317899 1.93068397 15 13 13
-11.31579971 0.77535802 1.93666995 15 13 13
-11.31225586 0.77680802 1.94066000 13 12 12
-11.30869484 0.77825803 1.94465005 11 12 12
-11.30555344 0.78007299 1.94963801 11 12 13
-11.30195618 0.78152299 1.95362794 13 13 13
-11.29747772 0.78224301 1.95562100 13 12 11
-11.29471111 0.78442198 1.96160805 10 12 9
-11.29234695 0.78696603 1.96859300 12 12 12
-11.28867626 0.78841603 1.97258198 12 12 12
-11.28414154 0.78913599 1.97457600 12 12 11
-11.27960014 0.78985602 1.97656906 13 12 11
-11.27420998 0.78984702 1.97656500 13 12 11
-11.27090645 0.79166102 1.98155296 12 12 11
-11.26799679 0.79383999 1.98754001 13 13 10
-11.26340961 0.79456002 1.98953295 14 12 11
-11.25922585 0.79564500 1.99252403 15 13 11
-11.25461960 0.79636502 1.99451697 13 12 9
-11.25000572 0.79708499 1.99651003 13 13 12
-11.24538422 0.79780501 1.99850297 14 13 13
-11.24357128 0.80107802 2.00748491 12 12 11
-11.23891735 0.80179799 2.00947809 12 12 11
-11.23425388 0.80251801 2.01147103 13 11 10
-11.23077202 0.80433202 2.01645899 13 11 11
-11.22687531 0.80578101 2.02044797 13 12 12
-11.22256947 0.80686498 2.02343988 14 12 12
-11.21786118 0.80758500 2.02543306 12 12 12
-11.21314430 0.80830503 2.02742600 13 13 13
-11.20957565 0.81011897 2.03241301 13 13 13
-11.20483589 0.81083900 2.03440595 13 13 13
-11.20199490 0.81338203 2.04139090 13 13 13
-11.19722843 0.81410199 2.04338408 13 13 13
-11.19245243 0.81482100 2.04537702 15 14 15
-11.18691826 0.81481099 2.04537296 12 11 15
-11.18250179 0.81589597 2.04836392 21 39 38
-11.17770386 0.81661499 2.05035710 19 44 40
-11.07211494 0.84118402 2.11815500 12 12 12
-11.06642723 0.84117401 2.11815190 12 12 12
-11.06073856 0.84116399 2.11814809 13 12 12
-11.05505180 0.84115303 2.11814404 12 12 12
-11.04936409 0.84114301 2.11813998 12 12 12
-11.04430103 0.84186298 2.12013292 14 12 12
-11.03860855 0.84185201 2.12012911 13 11 11
-11.03384113 0.84293598 2.12312007 11 11 10
-11.02814293 0.84292603 2.12311697 10 11 9
-11.02305317 0.84364498 2.12510896 13 11 9
-11.01825619 0.84472901 2.12809992 11 12 8
-11.01314640 0.84544802 2.13009310 11 11 10
-11.00802803 0.84616703 2.13208604 11 11 10
-11.00319767 0.84725100 2.13507700 13 12 11
-10.99747372 0.84723997 2.13507295 13 13 12
-10.99233341 0.84795898 2.13706589 12 13 10
-10.98660564 0.84794903 2.13706207 14 14 10
-10.98087788 0.84793901 2.13705802 11 13 13
-10.97600555 0.84902298 2.14004898 13 13 13
-10.97027206 0.84901297 2.14004493 11 11 11
-10.96509933 0.84973103 2.14203811 13 11 11
-10.95936108 0.84972101 2.14203405 13 12 12
-10.95362282 0.84971100 2.14203000 12 12 12
-10.94788456 0.84970099 2.14202690 10 12 12
-10.94296360 0.85078400 2.14501691 11 12 12
-10.93721962 0.85077399 2.14501405 12 12 12
-10.93147564 0.85076398 2.14500999 12 12 13
-10.92573166 0.85075402 2.14500594 12 12 12
-10.92051506 0.85147297 2.14699888 11 11 11
-10.91476727 0.85146302 2.14699507 11 11 11
-10.90901756 0.85145199 2.14699101 13 11 11
-10.90404224 0.85253602 2.14998198 11 11 10
-10.89828777 0.85252601 2.14997792 12 12 11
-10.89303970 0.85324401 2.15197110 12 12 11
-10.88728142 0.85323399 2.15196705 14 12 11
-10.88226891 0.85431802 2.15495801 11 11 10
-10.87749195 0.85576499 2.15894699 12 12 11
-10.87245369 0.85684800 2.16193795 12 12 11
-10.86715889 0.85756701 2.16392994 11 12 11
-10.86137486 0.85755700 2.16392708 13 13 12
-10.85559082 0.85754699 2.16392303 10 13 10
-10.84980679 0.85753697 2.16391897 6 10 10
-10.84355354 0.85679698 2.16191912 32 54 51
-10.83777428 0.85678703 2.16191506 16 44 31
-10.83199406 0.85677701 2.16191101 23 49 37
-10.82621384 0.85676700 2.16190696 27 31 27
-10.81975555 0.85566300 2.15890908 14 14 12
-10.81398201 0.85565299 2.15890503 15 15 11
-10.80820847 0.85564297 2.15890098 12 12 11
-10.80243492 0.85563201 2.15889692 12 12 8
-10.79666138 0.85562199 2.15889406 12 11 10
-10.79088688 0.85561198 2.15889001 11 11 10
-10.78511429 0.85560203 2.15888596 11 11 11
-10.77933979 0.85559201 2.15888190 11 11 11
-10.77356625 0.85558099 2.15887809 11 11 11
-10.76779270 0.85557097 2.15887499 12 11 11
-10.73813820 0.85406297 2.15486312 13 11 11
-10.73237228 0.85405201 2.15485907 12 11 11
-10.72564507 0.85222000 2.14986396 13 11 11
-10.71931934 0.85111701 2.14686608 12 11 11
-10.71356964 0.85110700 2.14686203 12 12 11
-10.70782185 0.85109699 2.14685798 11 12 8
-10.70207310 0.85108602 2.14685512 11 11 10
-10.69632530 0.85107601 2.14685106 11 12 11
-10.69057560 0.85106599 2.14684701 11 13 13
-10.68482780 0.85105598 2.14684296 13 13 13
-10.67907906 0.85104603 2.14683890 14 13 13
-10.67298412 0.85030699 2.14483905 12 12 12
-10.66672516 0.84920400 2.14184093 12 12 12
-10.66098690 0.84919298 2.14183688 13 13 13
-10.65524864 0.84918302 2.14183307 15 15 15
-10.64951134 0.84917301 2.14182997 15 15 14
-10.64377308 0.84916300 2.14182591 16 15 15
-10.63771343 0.84842402 2.13982606 15 14 14
-10.63197899 0.84841400 2.13982201 15 15 15
-10.62577534 0.84731102 2.13682389 15 15 14
-10.62004757 0.84730101 2.13682008 14 16 16
-10.61401463 0.84656203 2.13481998 14 16 15
-10.60783958 0.84545898 2.13182092 16 16 16
-10.60212326 0.84544897 2.13181806 16 16 16
-10.59611416 0.84470999 2.12981796 14 14 14
-10.59011173 0.84397101 2.12781811 16 16 16
-10.58397770 0.84286797 2.12481904 16 16 16
-10.57799530 0.84213001 2.12281895 16 16 16
-10.57229710 0.84211999 2.12281609 16 15 15
-10.56619167 0.84101701 2.11981702 15 16 15
-10.56023216 0.84027803 2.11781693 15 15 16
-10.55388737 0.83844697 2.11282301 16 15 15
-10.54756165 0.83661503 2.10782790 15 14 13
-10.54138565 0.83514798 2.10383201 15 15 12
-10.53535175 0.83404499 2.10083389 13 13 10
-10.52945328 0.83330703 2.09883404 15 15 13
-10.52344227 0.83220398 2.09583592 16 15 15
-10.51780128 0.83219397 2.09583211 16 15 15
-10.51192570 0.83145499 2.09383202 14 14 14
-10.50605869 0.83071703 2.09183192 14 14 13
-10.50008774 0.82961398 2.08883405 13 13 13
-10.49423981 0.82887602 2.08683395 14 13 13
-10.48840046 0.82813698 2.08483410 15 13 13
-10.48246288 0.82703501 2.08183599 15 15 15
-10.47664165 0.82629597 2.07983589 15 15 15
-10.47052288 0.82446498 2.07484198 13 15 15
-10.46452522 0.82299900 2.07084608 15 16 16
-10.45844555 0.82116801 2.06585097 16 16 16
-10.45267582 0.82042903 2.06385112 16 15 15
-10.44682026 0.81932700 2.06085300 14 14 15
-10.44088554 0.81786001 2.05685711 14 13 13
-10.43469906 0.81530100 2.04986691 14 14 14
-10.42897892 0.81456298 2.04786706 14 16 16
-10.42318153 0.81345999 2.04486895 14 15 15
-10.41764832 0.81344998 2.04486489 15 15 14
-10.41178799 0.81198400 2.04086900 15 15 14
-10.40570927 0.80942500 2.03387904 14 14 14
-10.39981174 0.80759400 2.02888489 15 15 13
-10.39416218 0.80685598 2.02688503 15 15 14
-10.38801003 0.80356902 2.01789808 16 16 15
-10.38224888 0.80210203 2.01390195 16 15 15
-10.37643719 0.80027199 2.00890803 16 15 15
-10.37071228 0.79880500 2.00491190 16 16 16
-10.36455345 0.79479003 1.99392903 16 16 16
-10.35900116 0.79405200 1.99193001 16 16 16
-10.35339737 0.79294997 1.98893201 15 15 14
-10.34786415 0.79221201 1.98693204 16 16 16
-10.34222794 0.79074597 1.98293602 16 16 16
-10.33660793 0.78928000 1.97894001 16 16 16
-10.33105564 0.78817803 1.97594202 16 16 17
-10.32516956 0.78452700 1.96595800 16 16 16
-10.31937218 0.78123999 1.95697200 16 16 16
-10.31384087 0.77977401 1.95297599 16 17 17
-10.30810928 0.77648801 1.94398904 15 18 18
-10.30270386 0.77574998 1.94199002 17 17 18
-10.29722881 0.77428401 1.93799400 17 17 18
-10.29162216 0.77136201 1.93000603 16 16 16
-10.28615379 0.76953202 1.92501199 17 16 16
-10.28073978 0.76806599 1.92101598 16 16 15
-10.27521896 0.76514399 1.91302800 16 16 16
-10.26984692 0.76367903 1.90903199 17 17 17
-10.26449203 0.76221299 1.90503705 18 18 18
-10.25910378 0.76001900 1.89904499 16 18 17
-10.25365162 0.75636899 1.88906002 17 18 15
-10.24828243 0.75344700 1.88107300 18 16 14
-10.24305630 0.75270998 1.87907302 16 16 13
-10.23780537 0.75124401 1.87507701 17 15 14
-10.23248768 0.74759400 1.86509299 17 15 14
-10.22730732 0.74685699 1.86309397 18 16 16
-10.22209644 0.74466401 1.85710204 17 17 18
-11.50629425 0.67152297 1.63835299 23 22 23
-11.50161552 0.67151499 1.63835001 30 26 26
-11.49985313 0.67334199 1.64333904 23 21 20
-11.49516487 0.67333400 1.64333606 23 20 20
-11.49047661 0.67332602 1.64333296 19 17 17
-11.49040318 0.67625499 1.65131700 17 17 17
-11.48914528 0.67844999 1.65730405 17 17 17
-11.48442841 0.67844099 1.65730095 15 17 16
-11.48085117 0.67916697 1.65929496 15 18 18
-11.47783375 0.68026000 1.66228700 15 19 20
-11.47537136 0.68172002 1.66627800 18 20 21
-11.47232628 0.68281400 1.66927004 20 22 23
-11.46870804 0.68353897 1.67126298 22 24 24
-11.46564007 0.68463200 1.67425597 23 24 24
-11.46367645 0.68646002 1.67924404 22 24 24
-11.46057987 0.68755299 1.68223703 21 25 25
-11.45968533 0.69011402 1.68922198 19 26 26
-11.46151829 0.69451100 1.70120001 21 25 26
-11.46165276 0.69780701 1.71018195 22 23 23
-11.45791912 0.69853199 1.71217597 22 22 22
-11.45472145 0.69962502 1.71516800 19 19 19
-11.45368385 0.70218599 1.72215402 17 18 18
-11.44991207 0.70291197 1.72414696 17 18 18
-11.44613075 0.70363802 1.72614098 17 19 19
-11.44502640 0.70619899 1.73312604 19 20 19
-11.44389153 0.70876002 1.74011195 18 21 17
-11.44272900 0.71132100 1.74709797 17 19 17
-11.44153595 0.71388102 1.75408304 17 17 17
-11.43661404 0.71387303 1.75408006 15 15 14
-11.43642998 0.71716797 1.76306200 13 15 14
-11.43463516 0.71936101 1.76904905 14 14 13
-11.43072701 0.72008699 1.77104294 15 15 14
-11.42576981 0.72007799 1.77103901 16 16 16
-11.42236710 0.72117001 1.77403104 16 16 17
-11.42152977 0.72409803 1.78201497 16 16 17
-11.41809082 0.72519100 1.78500700 16 16 16
-11.41515064 0.72665000 1.78899705 17 15 15
-11.41219521 0.72810900 1.79298699 16 16 16
-11.40972900 0.72993600 1.79797602 16 16 16
-11.41229534 0.73543203 1.81294799 16 16 13
-11.40825558 0.73615801 1.81494200 16 15 13
-11.40521145 0.73761702 1.81893206 15 15 12
-11.40514374 0.74127799 1.82891202 14 14 13
-11.40105915 0.74200302 1.83090603 15 13 13
-11.39647102 0.74236101 1.83190095 14 14 13
-11.39335728 0.74382001 1.83589101 14 15 15
-11.38924503 0.74454498 1.83788395 14 14 14
-11.38610077 0.74600399 1.84187400 13 13 13
-11.38196754 0.74672902 1.84386802 14 14 14
-11.37879467 0.74818802 1.84785795 13 13 13
-11.37849903 0.75184900 1.85783803 13 14 14
-11.37528038 0.75330800 1.86182797 14 14 14
-11.37395573 0.75623500 1.86981106 13 13 13
-11.37069511 0.75769401 1.87380099 13 13 13
-11.36646938 0.75841802 1.87579501 13 13 13
-11.36317921 0.75987703 1.87978494 13 13 13
-11.35987186 0.76133603 1.88377500 15 15 16
-11.35654736 0.76279497 1.88776505 14 14 15
-11.35320663 0.76425302 1.89175498 15 13 13
-11.34892178 0.76497799 1.89374804 16 14 13
-11.34555244 0.76643699 1.89773798 15 13 13
-11.34308338 0.76862901 1.90372396 14 13 9
-11.33967495 0.77008802 1.90771401 14 12 11
-11.33625031 0.77154601 1.91170394 14 12 12
-11.33190346 0.77227098 1.91369700 15 13 14
-11.32935047 0.77446300 1.91968405 16 14 14
-11.32497787 0.77518803 1.92167699 15 13 13
-11.32149029 0.77664602 1.92566705 14 13 13
-11.31754112 0.77773798 1.92865896 15 13 13
-11.31579113 0.78066403 1.93664205 12 12 12
-11.31224632 0.78212202 1.94063199 12 12 12
-11.30780888 0.78284597 1.94262505 13 13 13
-11.30423546 0.78430498 1.94661498 13 13 13
-11.30107784 0.78613001 1.95160306 13 13 13
-11.29746914 0.78758800 1.95559299 12 12 12
-11.29384232 0.78904599 1.95958197 10 13 9
-11.29233742 0.79233903 1.96856403 12 12 12
-11.28866673 0.79379702 1.97255301 13 13 13
-11.28413296 0.79452097 1.97454703 13 13 13
-11.27958965 0.79524601 1.97653997 14 12 12
-11.27420139 0.79523599 1.97653604 14 12 12
-11.27089691 0.79706103 1.98152399 12 12 12
-11.26798725 0.79925299 1.98750997 14 12 12
-11.26340103 0.79997700 1.98950303 13 12 11
-11.25921631 0.80106801 1.99249494 14 12 11
-11.25461102 0.80179203 1.99448800 14 12 12
-11.24999714 0.80251598 1.99648094 13 13 13
-11.24537373 0.80324000 1.99847400 12 12 12
-11.24275589 0.80579901 2.00545907 13 13 12
-11.23810577 0.80652303 2.00745201 12 12 8
-11.23344803 0.80724698 2.00944495 13 12 10
-11.22996998 0.80907100 2.01443195 14 12 12
-11.22607708 0.81052899 2.01842189 12 12 12
-11.22255898 0.81235301 2.02341008 13 12 12
-11.21785069 0.81307697 2.02540302 13 13 13
-11.21313381 0.81380099 2.02739596 13 13 12
-11.20840931 0.81452501 2.02938890 13 12 12
-11.20482635 0.81634998 2.03437710 14 12 12
-11.20084095 0.81780702 2.03836608 12 12 13
-11.19721794 0.81963199 2.04335403 13 13 13
-11.19244194 0.82035500 2.04534698 14 14 15
-11.18690777 0.82034600 2.04534292 15 15 17
-11.18249321 0.82143599 2.04833508 19 38 36
-11.17769432 0.82216001 2.05032706 27 47 46
-11.07210541 0.84687102 2.11812496 12 12 12
-11.06641674 0.84686100 2.11812091 12 12 12
-11.06072903 0.84685099 2.11811709 12 12 12
-11.05504227 0.84684098 2.11811304 13 11 12
-11.04935360 0.84683102 2.11810994 12 11 11
-11.04366684 0.84682101 2.11810589 13 11 10
-11.03859901 0.84754401 2.12009907 11 11 10
-11.03290653 0.84753400 2.12009501 11 11 10
-11.02813339 0.84862399 2.12308598 11 11 11
-11.02304268 0.84934700 2.12507892 13 11 10
-11.01824570 0.85043699 2.12807012 11 11 10
-11.01313591 0.85116100 2.13006210 14 12 11
-11.00801754 0.85188401 2.13205504 13 11 11
-11.00318718 0.85297400 2.13504601 12 12 11
-10.99746418 0.85296398 2.13504195 12 12 12
-10.99232292 0.85368699 2.13703489 13 13 13
-10.98659611 0.85367697 2.13703108 13 13 12
-10.98086834 0.85366702 2.13702703 12 12 12
-10.97599506 0.85475600 2.14001799 11 12 12
-10.97026157 0.85474598 2.14001393 11 11 11
-10.96452808 0.85473597 2.14001107 14 12 12
-10.95935059 0.85545897 2.14200306 13 11 11
-10.95361328 0.85544902 2.14199901 11 11 11
-10.94787502 0.85543901 2.14199591 11 12 11
-10.94213676 0.85542899 2.14199209 13 13 13
-10.93721008 0.85651797 2.14498305 12 12 12
-10.93146610 0.85650802 2.14497900 12 12 12
-10.92572117 0.85649800 2.14497495 14 12 12
-10.91997719 0.85648799 2.14497089 13 11 11
-10.91475582 0.85721099 2.14696407 13 11 11
-10.90900803 0.85720098 2.14696002 13 11 11
-10.90325928 0.85719103 2.14695597 13 11 11
-10.89827728 0.85828000 2.14994693 12 12 12
-10.89252281 0.85826999 2.14994311 14 12 12
-10.88676834 0.85825998 2.14994001 12 11 10
-10.88151169 0.85898298 2.15193200 11 11 10
-10.87698841 0.86080599 2.15691900 11 11 10
-10.87170887 0.86152899 2.15891194 11 11 10
-10.86714935 0.86335099 2.16389894 11 12 11
-10.86136532 0.86334097 2.16389489 13 12 10
-10.85558128 0.86333102 2.16389203 10 12 10
-10.84932423 0.86258698 2.16189098 9 14 14
-10.84354401 0.86257702 2.16188788 41 54 51
-10.83776379 0.86256701 2.16188407 15 40 34
-10.83198357 0.86255699 2.16188002 21 45 36
-10.82551861 0.86144698 2.15888190 21 27 22
-10.81974602 0.86143702 2.15887809 13 13 12
-10.81397247 0.86142600 2.15887403 13 14 10
-10.80819798 0.86141598 2.15886998 12 12 11
-10.80242538 0.86140603 2.15886593 11 11 10
-10.79665089 0.86139601 2.15886307 11 11 11
-10.79087734 0.86138600 2.15885901 9 11 10
-10.78467655 0.86064202 2.15685892 11 11 11
-10.77890682 0.86063200 2.15685511 11 11 11
-10.77313805 0.86062199 2.15685105 10 11 11
-10.76736832 0.86061198 2.15684700 12 12 12
-10.76200867 0.86133498 2.15883994 11 11 11
-10.75582886 0.86059099 2.15683889 13 11 11
-10.74965763 0.85984802 2.15483904 14 12 12
-10.74389267 0.85983801 2.15483594 14 12 12
-10.73812771 0.85982800 2.15483189 13 11 11
-10.73177814 0.85871798 2.15183306 11 11 11
-10.72563457 0.85797501 2.14983296 13 11 11
-10.71988010 0.85796499 2.14982891 11 11 11
-10.71356010 0.85685498 2.14683104 11 11 11
-10.70781231 0.85684502 2.14682698 11 11 10
-10.70206261 0.85683501 2.14682388 10 11 11
-10.69631481 0.85682499 2.14682007 10 12 12
-10.69056606 0.85681403 2.14681602 13 13 12
-10.68481827 0.85680401 2.14681196 13 13 13
-10.67906857 0.85679400 2.14680791 13 13 14
-10.67297363 0.85605103 2.14480805 12 12 12
-10.66671467 0.85494101 2.14180994 13 13 11
-10.66097736 0.85493100 2.14180589 13 13 12
-10.65523911 0.85492098 2.14180207 14 14 14
-10.64950085 0.85491103 2.14179897 14 14 14
-10.64376259 0.85490102 2.14179492 12 13 13
-10.63770294 0.85415798 2.13979506 14 14 14
-10.63196945 0.85414797 2.13979101 15 15 15
-10.62576485 0.85303801 2.13679290 13 15 15
-10.62003803 0.85302800 2.13678908 12 15 15
-10.61400509 0.85228503 2.13478899 13 15 15
-10.60783005 0.85117602 2.13179111 16 16 16
-10.60211277 0.85116601 2.13178706 15 16 16
-10.59610367 0.85042298 2.12978697 16 16 16
-10.58967018 0.84858102 2.12479210 16 16 16
