-11.02975082 0.52426702 1.80082905 17 19 19
-11.02473259 0.52425802 1.80082595 15 19 19
-11.01971531 0.52424902 1.80082202 19 19 18
-11.01538086 0.52480102 1.80281699 15 18 17
-10.71675682 0.46265799 1.58294797 18 18 18
-10.71219730 0.46265000 1.58294499 18 18 18
-10.70763683 0.46264201 1.58294201 13 13 12
-10.70307636 0.46263400 1.58293903 21 57 49
-10.69851589 0.46262601 1.58293605 18 45 35
-10.69464111 0.46345901 1.58592904 15 48 34
-10.69052696 0.46401200 1.58792305 24 50 38
-10.68618107 0.46428499 1.58891904 16 22 17
-10.68227386 0.46511799 1.59191203 19 21 16
-10.67769527 0.46511000 1.59190905 19 20 17
-10.67355156 0.46566299 1.59390295 19 19 18
-10.66961575 0.46649599 1.59689605 18 19 18
-10.66780376 0.47013301 1.60987496 18 19 18
-10.66403294 0.47124699 1.61386704 18 18 17
-11.08734417 0.52741098 1.79385102 16 16 16
-11.08085632 0.52627099 1.78985202 16 17 17
-11.07512379 0.52569699 1.78785205 17 18 17
-11.07086658 0.52625299 1.78984594 13 17 16
-11.06660175 0.52680999 1.79183996 13 21 20
-11.06232834 0.52736700 1.79383397 37 72 68
-11.05804634 0.52792400 1.79582798 20 46 43
-11.05303860 0.52791500 1.79582500 22 41 39
-11.04838753 0.52818900 1.79682004 22 36 35
-11.04337883 0.52818000 1.79681695 23 27 28
-11.03907394 0.52873701 1.79881096 18 21 21
-11.03405952 0.52872801 1.79880798 16 19 20
-11.02904606 0.52871901 1.79880500 16 18 20
-11.02403259 0.52871001 1.79880095 16 20 20
-11.01970673 0.52926701 1.80079496 16 19 19
-11.01537228 0.52982301 1.80278897 16 18 18
-10.71674919 0.46721801 1.58292305 18 18 18
-10.71218872 0.46720999 1.58291996 18 18 19
-10.70762920 0.46720201 1.58291698 17 17 15
-10.70306778 0.46719399 1.58291399 20 47 36
-10.69896889 0.46775100 1.58490896 17 44 34
-10.69463253 0.46802601 1.58590400 15 43 39
-10.69051933 0.46858299 1.58789897 29 50 48
-10.68617344 0.46885699 1.58889401 15 19 19
-10.68226624 0.46969700 1.59188700 19 19 18
-10.67768669 0.46968901 1.59188402 19 19 18
-10.67354393 0.47024599 1.59387803 17 18 18
-10.66960812 0.47108501 1.59687102 17 18 17
-11.08733463 0.53241402 1.79382396 16 16 16
-11.08233166 0.53240502 1.79382002 16 16 16
-11.07585335 0.53125697 1.78982198 16 18 18
-11.07159233 0.53181797 1.79181600 12 13 13
-11.06659317 0.53180897 1.79181302 15 28 27
-11.06231880 0.53236997 1.79380703 38 76 74
-11.05731583 0.53236097 1.79380405 18 44 40
-11.05303001 0.53292203 1.79579794 19 42 39
-11.04802322 0.53291303 1.79579496 22 36 35
-11.04337025 0.53318900 1.79679000 21 26 27
-11.03835964 0.53318000 1.79678702 18 22 23
-11.03335094 0.53317100 1.79678297 17 18 22
-11.02903748 0.53373200 1.79877806 17 20 20
-11.02402401 0.53372401 1.79877400 16 20 21
-11.01900959 0.53371501 1.79877102 15 19 20
-11.01536274 0.53484499 1.80276203 17 19 19
-10.71674061 0.47177801 1.58289897 17 17 17
-10.71218109 0.47176999 1.58289599 18 18 17
-10.70762062 0.47176200 1.58289301 15 16 12
-10.70306015 0.47175401 1.58289003 22 49 37
-10.69896126 0.47231501 1.58488405 16 46 36
-10.69462490 0.47259200 1.58588004 16 41 37
-10.69051075 0.47315300 1.58787405 33 44 43
-10.68616486 0.47343001 1.58887005 14 18 19
-10.68225765 0.47427601 1.59186196 17 17 17
-10.67767906 0.47426799 1.59185898 16 18 18
-10.67353630 0.47482899 1.59385395 15 17 17
-10.67067814 0.47709799 1.60184002 16 18 18
-11.07658195 0.53682601 1.79179299 18 18 18
-11.07158279 0.53681701 1.79178905 23 19 19
-11.06658363 0.53680801 1.79178596 27 33 36
-11.06231117 0.53737301 1.79377997 35 74 72
-11.05730724 0.53736401 1.79377699 20 48 44
-11.05230427 0.53735501 1.79377401 20 43 39
-11.04730129 0.53734601 1.79376996 25 36 35
-11.04300690 0.53791201 1.79576397 18 25 24
-11.03799915 0.53790301 1.79576099 19 23 23
-11.03334236 0.53818101 1.79675603 15 19 20
-11.02833271 0.53817201 1.79675305 16 20 21
-11.02401543 0.53873700 1.79874694 15 22 21
-10.71720982 0.47691199 1.58487201 17 18 14
-10.71217346 0.47633001 1.58287096 21 19 18
-10.70761204 0.47632200 1.58286798 13 15 14
-10.70305157 0.47631401 1.58286500 16 50 41
-10.69895267 0.47688001 1.58485997 16 46 36
-10.69461727 0.47715801 1.58585501 18 42 35
-10.69050312 0.47772399 1.58784902 38 48 43
-10.68615723 0.47800300 1.58884501 15 17 17
-10.68202782 0.47856799 1.59083903 19 19 18
-10.67767143 0.47884700 1.59183502 18 18 17
-11.07731056 0.54240298 1.79376304 17 17 16
-11.07230759 0.54239398 1.79375994 13 14 14
-11.06657505 0.54180700 1.79175901 26 39 38
-11.06157589 0.54179800 1.79175603 32 71 65
-11.05657673 0.54178900 1.79175305 19 48 41
-11.05157757 0.54177999 1.79174900 19 45 41
-10.71720219 0.48147601 1.58484697 18 17 16
-10.71263790 0.48146799 1.58484399 21 19 19
-10.70760441 0.48088199 1.58284402 13 20 19
-10.70304394 0.48087400 1.58284104 22 54 46
-10.69894505 0.48144400 1.58483505 14 45 32
-10.69460869 0.48172501 1.58583105 15 46 32
-10.69049454 0.48229399 1.58782494 37 56 45
-10.68614769 0.48257500 1.58881998 8 12 12
-10.68202019 0.48314500 1.59081495 19 19 19
-10.67766285 0.48342600 1.59180999 18 18 18
-10.70759583 0.48544300 1.58281898 16 22 21
-10.70303631 0.48543400 1.58281600 23 52 42
-10.69893742 0.48600799 1.58481002 12 48 28
-10.69437313 0.48600000 1.58480704 16 47 27
-10.69003391 0.48628300 1.58580303 34 47 37
-10.68591595 0.48685700 1.58779705 15 15 15
-10.70805836 0.49058899 1.58479202 13 13 11
-10.70569801 -0.80523598 1.87977302 198 205 204
-10.70052910 -0.80524600 1.87976897 196 200 199
-10.69536018 -0.80525500 1.87976599 196 198 198
-10.69019127 -0.80526400 1.87976301 190 194 195
-10.68541813 -0.80580801 1.88176203 190 194 194
-10.67985344 -0.80528200 1.87975597 189 191 191
-10.70568943 -0.80006701 1.87974501 201 209 208
-10.70051956 -0.80007702 1.87974203 195 201 200
-10.69535065 -0.80008602 1.87973797 195 199 199
-10.69018173 -0.80009502 1.87973499 190 194 196
-10.68501282 -0.80010402 1.87973106 189 192 196
-10.67984390 -0.80011302 1.87972796 189 191 192
-10.71601772 -0.79487997 1.87972403 208 229 229
-10.71084881 -0.79488897 1.87972105 205 216 216
-10.70567989 -0.79489899 1.87971699 201 208 206
-10.70051098 -0.79490799 1.87971401 198 202 201
-10.69534206 -0.79491699 1.87970996 195 197 198
-10.69017315 -0.79492599 1.87970698 192 194 195
-10.68500423 -0.79493499 1.87970400 189 190 193
-10.67983532 -0.79494399 1.87969995 188 190 192
-10.71600914 -0.78971100 1.87969601 220 241 238
-10.71084023 -0.78972000 1.87969303 211 221 220
-10.70567131 -0.78973001 1.87968898 204 210 210
-10.70009422 -0.78921598 1.87768304 201 203 202
-10.69492912 -0.78922498 1.87767899 195 197 197
-10.68976402 -0.78923500 1.87767601 192 195 196
-10.68499470 -0.78976601 1.87967598 193 194 195
-10.67982578 -0.78977501 1.87967205 188 190 191
-10.71599960 -0.78454202 1.87966800 227 241 240
-10.71083069 -0.78455198 1.87966502 216 223 222
-10.70524883 -0.78404200 1.87765801 202 206 205
-10.70008373 -0.78405201 1.87765503 204 207 203
-10.69491959 -0.78406101 1.87765205 198 200 200
-10.68975544 -0.78407001 1.87764800 192 196 196
-10.68498611 -0.78459698 1.87964797 193 195 195
-10.67981720 -0.78460598 1.87964404 187 191 191
-10.71599007 -0.77937299 1.87963998 243 246 251
-10.71082115 -0.77938300 1.87963700 220 224 225
-10.70524025 -0.77887797 1.87763095 202 204 203
-10.70007515 -0.77888697 1.87762702 202 207 205
-10.69491005 -0.77889597 1.87762403 195 199 199
-10.68974590 -0.77890497 1.87761998 189 197 196
-10.68497562 -0.77942801 1.87961996 190 194 194
-10.67980671 -0.77943701 1.87961698 188 192 192
-10.71640205 -0.77471399 1.88161600 243 251 255
-10.71039581 -0.77370399 1.87760603 245 249 253
-10.70523071 -0.77371299 1.87760305 205 209 210
-10.69965839 -0.77321202 1.87559605 195 205 204
-10.69490147 -0.77373099 1.87759602 194 201 203
-10.68973732 -0.77373999 1.87759304 186 195 195
-10.68496704 -0.77425897 1.87959194 185 192 192
-10.67979813 -0.77426898 1.87958896 185 189 189
-10.71597195 -0.76903600 1.87958503 236 247 254
-10.70997047 -0.76803303 1.87557495 240 247 255
-10.70439720 -0.76753700 1.87356901 229 237 241
-10.69924068 -0.76754600 1.87356496 182 197 195
-10.69408417 -0.76755500 1.87356198 191 198 197
-10.68932819 -0.76806998 1.87556195 188 192 192
-10.68456268 -0.76858503 1.87756097 184 188 188
-10.68018055 -0.76960498 1.88156402 183 187 187
-10.71554184 -0.76336497 1.87755406 232 245 253
-10.70954418 -0.76237100 1.87354505 229 241 253
-10.70397568 -0.76187903 1.87153804 214 224 233
-10.69882298 -0.76188803 1.87153494 186 194 194
-10.69367123 -0.76189703 1.87153101 184 188 187
-10.68891907 -0.76240802 1.87353098 182 186 186
-10.68415833 -0.76291901 1.87553000 176 184 183
-10.68017101 -0.76443201 1.88153601 170 177 175
-10.71511173 -0.75770301 1.87552297 203 225 232
-10.70911884 -0.75671798 1.87151396 206 227 239
-10.70355415 -0.75623000 1.86950696 216 226 235
-10.69840622 -0.75623900 1.86950397 193 197 197
-10.69325829 -0.75624800 1.86950099 187 191 190
-10.68850994 -0.75675398 1.87150002 184 188 188
-10.68375301 -0.75726098 1.87349999 182 189 188
-10.67977142 -0.75876200 1.87950504 180 189 189
-10.71426201 -0.75155699 1.87148905 192 215 213
-10.70869255 -0.75107300 1.86948299 193 215 214
-10.70313263 -0.75058901 1.86747706 198 211 214
-10.69798946 -0.75059801 1.86747301 195 199 198
-10.69284534 -0.75060701 1.86747003 186 190 186
-10.68810081 -0.75110900 1.86946905 181 185 185
-10.68295288 -0.75111800 1.86946595 183 188 188
-10.67897892 -0.75260699 1.87547100 181 188 187
-10.71383190 -0.74591601 1.86945903 187 208 208
-10.70826721 -0.74543601 1.86745203 190 208 206
-10.70271111 -0.74495602 1.86544597 195 203 202
-10.69757175 -0.74496502 1.86544299 192 197 196
-10.69243240 -0.74497402 1.86543906 186 190 190
-10.68769169 -0.74547201 1.86743903 180 184 184
-10.68254757 -0.74548101 1.86743498 177 181 182
-10.67857933 -0.74695700 1.87344098 182 187 187
-10.72369003 -0.74026501 1.86743498 135 198 188
-10.71854591 -0.74027401 1.86743104 145 200 195
-10.71340179 -0.74028301 1.86742795 178 203 200
-10.70784187 -0.73980701 1.86542201 186 203 202
-10.70270157 -0.73981601 1.86541796 194 200 199
-10.69756317 -0.73982602 1.86541498 192 196 196
-10.69242287 -0.73983502 1.86541200 189 193 193
-10.68728256 -0.73984402 1.86540794 181 186 185
-10.68253899 -0.74033803 1.86740804 178 181 181
-10.67778683 -0.74083102 1.86940706 177 184 184
-10.72368145 -0.73512101 1.86740696 111 186 177
-10.71853733 -0.73513001 1.86740398 139 192 188
-10.71297169 -0.73465902 1.86539698 169 199 198
-10.70741558 -0.73418701 1.86339104 180 199 197
-10.70228100 -0.73419601 1.86338794 188 197 196
-10.69714546 -0.73420602 1.86338401 189 194 194
-10.69200993 -0.73421502 1.86338103 186 194 192
-10.68687534 -0.73422402 1.86337805 182 189 188
-10.68213463 -0.73471302 1.86537695 178 182 182
-10.67738628 -0.73520303 1.86737704 174 181 181
-10.72324181 -0.72950101 1.86537695 107 189 172
-10.71810341 -0.72951001 1.86537302 135 192 184
-10.71296310 -0.72951901 1.86537004 168 197 198
-10.70699120 -0.72857600 1.86136103 182 195 197
-10.70144653 -0.72810900 1.85935402 186 195 194
-10.69631958 -0.72811800 1.85935104 186 195 194
-10.69159698 -0.72860301 1.86135006 187 194 193
-10.68646622 -0.72861201 1.86134696 185 192 191
-10.68173027 -0.72909701 1.86334705 178 185 184
-10.67698574 -0.72958302 1.86534595 176 180 181
-10.72323322 -0.72436202 1.86534905 112 186 164
-10.71809387 -0.72437102 1.86534500 132 189 181
-10.71211338 -0.72343600 1.86133599 163 194 190
-10.70614910 -0.72250003 1.85732698 175 193 192
-10.70061302 -0.72203702 1.85532105 184 193 192
-10.69590282 -0.72251898 1.85732102 187 194 194
-10.69077969 -0.72252798 1.85731697 186 190 191
-10.68605709 -0.72300899 1.85931695 184 189 190
-10.68132591 -0.72349000 1.86131597 183 187 187
-10.67697716 -0.72444302 1.86531794 177 181 181
-10.72107887 -0.71688300 1.85530698 116 182 161
-10.71723461 -0.71829498 1.86131203 137 185 178
-10.71084213 -0.71690100 1.85529995 163 193 189
-10.70572281 -0.71691000 1.85529697 179 193 192
-10.70060444 -0.71691900 1.85529304 186 194 194
-10.69548607 -0.71692801 1.85529006 187 194 194
-10.69036674 -0.71693701 1.85528696 186 190 190
-10.68564796 -0.71741402 1.85728598 188 190 193
-10.72278595 -0.71361899 1.86329103 120 181 165
-10.71595097 -0.71177298 1.85527599 151 185 181
-10.71041203 -0.71131903 1.85327005 164 191 189
-10.70529747 -0.71132803 1.85326600 177 194 192
-10.70018291 -0.71133697 1.85326302 183 193 193
-10.69506931 -0.71134597 1.85326004 187 190 193
-10.69035816 -0.71181798 1.85525894 185 189 190
-10.68523884 -0.71182799 1.85525596 188 188 193
-10.72106075 -0.70664603 1.85525203 104 174 151
-10.71551704 -0.70619500 1.85324597 150 180 177
-10.71040344 -0.70620400 1.85324204 166 189 192
-10.70528793 -0.70621300 1.85323906 179 192 191
-10.70017433 -0.70622200 1.85323596 181 191 192
-10.69505978 -0.70623100 1.85323203 187 191 192
-10.68994522 -0.70624000 1.85322905 186 190 191
-10.68523026 -0.70670903 1.85522795 185 189 192
-10.72105217 -0.70152700 1.85522401 93 171 153
-10.71550846 -0.70108098 1.85321796 150 180 179
-10.71039391 -0.70108998 1.85321498 167 189 198
-10.70527935 -0.70109898 1.85321105 178 190 194
-10.70016479 -0.70110798 1.85320795 182 191 196
-10.69505119 -0.70111698 1.85320497 186 193 193
-10.68993568 -0.70112598 1.85320103 184 191 190
-10.68522072 -0.70159000 1.85520101 187 191 191
-10.72061443 -0.69595701 1.85319400 95 172 161
-10.71549892 -0.69596702 1.85319102 148 181 179
-10.70996380 -0.69552398 1.85118401 165 188 194
-10.70485401 -0.69553399 1.85118103 179 192 195
-10.70015621 -0.69599402 1.85318005 184 191 192
-10.69504166 -0.69600302 1.85317695 186 193 193
-10.68992710 -0.69601202 1.85317397 187 191 191
-10.68481255 -0.69602102 1.85317004 185 189 189
-10.72060490 -0.69084299 1.85316598 100 171 157
-10.71506500 -0.69040501 1.85116005 156 180 179
-10.70953369 -0.68996698 1.84915400 169 188 191
-10.70442772 -0.68997699 1.84915102 179 191 195
-10.69973469 -0.69043201 1.85115004 187 194 194
-10.69462395 -0.69044101 1.85114706 186 190 190
-10.68991756 -0.69089699 1.85314596 187 191 192
-10.68480396 -0.69090599 1.85314298 185 189 189
-10.73082447 -0.68571103 1.85314596 115 170 139
-10.72614288 -0.68616199 1.85514498 108 171 145
-10.72016621 -0.68528599 1.85113597 101 171 158
-10.71463108 -0.68485200 1.84913003 163 183 181
-10.70952511 -0.68486202 1.84912705 171 188 192
-10.70400333 -0.68442798 1.84712100 180 190 192
-10.69931316 -0.68488002 1.84912002 184 192 191
-10.69461536 -0.68533099 1.85111904 187 191 191
-10.73081493 -0.68059599 1.85311794 112 171 142
-10.72570133 -0.68060499 1.85311496 109 168 143
-10.71972847 -0.67973799 1.84910595 87 164 152
-10.71419811 -0.67930800 1.84710002 164 180 179
-10.70825386 -0.67843997 1.84309101 173 185 194
-10.70316124 -0.67844898 1.84308803 182 190 192
-10.69847965 -0.67889702 1.84508705 181 190 189
-10.69379044 -0.67934400 1.84708595 187 191 192
-10.72905731 -0.67374498 1.84508002 109 169 143
-10.72482491 -0.67462301 1.84908199 115 172 143
-10.71928978 -0.67419702 1.84707606 103 167 157
-10.71333885 -0.67333800 1.84306705 179 183 184
-10.70740414 -0.67247802 1.83905804 176 187 194
-10.70231915 -0.67248702 1.83905494 180 190 193
-10.69764614 -0.67293102 1.84105396 182 191 190
-10.69296455 -0.67337400 1.84305406 184 191 191
-10.68827629 -0.67381698 1.84505296 186 190 191
-10.68397713 -0.67469501 1.84905505 186 190 190
-10.72904778 -0.66864699 1.84505200 111 167 141
-10.72395039 -0.66865599 1.84504902 113 168 142
-10.71756458 -0.66737503 1.83903801 118 170 162
-10.71247959 -0.66738403 1.83903396 177 181 182
-10.70718479 -0.66717798 1.83802998 174 189 190
-10.70230961 -0.66740203 1.83902800 183 192 193
-10.69722462 -0.66741103 1.83902395 178 192 191
-10.69254780 -0.66785002 1.84102404 184 191 190
-10.68786335 -0.66828901 1.84302294 186 190 191
-10.68316936 -0.66872901 1.84502196 187 190 190
-10.72750759 -0.66205901 1.83801603 114 168 143
-10.72264099 -0.66228098 1.83901405 99 166 141
-10.71734238 -0.66207701 1.83800900 114 166 159
-10.71225929 -0.66208601 1.83800602 178 184 184
-10.70717621 -0.66209501 1.83800197 174 188 186
-10.70209312 -0.66210401 1.83799899 180 189 188
-10.69721603 -0.66232598 1.83899701 180 190 189
-10.69253922 -0.66276097 1.84099603 182 191 190
-10.68745041 -0.66276997 1.84099305 182 190 189
-10.68276024 -0.66320503 1.84299195 184 190 189
-10.72749901 -0.65697700 1.83798802 108 166 144
-10.72241592 -0.65698600 1.83798504 97 163 140
-10.71690369 -0.65657300 1.83597898 124 166 160
-10.71182537 -0.65658200 1.83597600 177 181 182
-10.70716667 -0.65701300 1.83797503 174 188 186
-10.70208359 -0.65702200 1.83797204 181 189 188
-10.69700146 -0.65703100 1.83796799 181 189 188
-10.69212246 -0.65724999 1.83896601 180 190 188
-10.68744087 -0.65768099 1.84096503 180 189 187
-10.68275070 -0.65811199 1.84296501 184 188 188
-10.72749043 -0.65189397 1.83796096 102 167 150
-10.72197342 -0.65148503 1.83595502 90 166 145
-10.71689510 -0.65149403 1.83595204 116 168 161
-10.71181583 -0.65150303 1.83594799 179 187 188
-10.70673656 -0.65151203 1.83594501 174 183 182
-10.70165920 -0.65152103 1.83594203 182 186 186
-10.69699192 -0.65194798 1.83794105 183 184 184
-10.69190884 -0.65195698 1.83793795 183 186 186
-10.68743229 -0.65259200 1.84093797 183 186 186
-10.68274212 -0.65301800 1.84293699 183 187 187
-10.72704315 -0.64639801 1.83593094 96 164 141
-10.72196388 -0.64640701 1.83592796 89 168 140
-10.71688557 -0.64641601 1.83592403 106 168 164
-10.71180725 -0.64642501 1.83592105 151 169 175
-10.70672798 -0.64643401 1.83591795 164 173 172
-10.70164967 -0.64644301 1.83591402 177 179 178
-10.69657135 -0.64645201 1.83591104 179 181 181
-10.69190025 -0.64687401 1.83791006 172 174 174
-10.68701935 -0.64708900 1.83890796 177 181 182
-10.68273258 -0.64792502 1.84291005 175 179 179
-10.73719215 -0.64130098 1.83590996 160 180 171
-10.73211288 -0.64130998 1.83590698 78 152 128
-10.72703362 -0.64131898 1.83590400 97 165 142
-10.72152233 -0.64091903 1.83389795 88 165 136
-10.71644783 -0.64092797 1.83389497 113 166 160
-10.71137333 -0.64093697 1.83389103 167 180 185
-10.70629883 -0.64094597 1.83388805 175 189 188
-10.70164108 -0.64136398 1.83588696 182 188 187
-10.69656181 -0.64137298 1.83588398 184 188 188
-10.69189072 -0.64179099 1.83788300 184 188 188
-10.68700981 -0.64200503 1.83888102 183 187 187
-10.68272400 -0.64283198 1.84288204 185 187 187
-10.73718262 -0.63622200 1.83588302 163 189 181
-10.73210430 -0.63623101 1.83588004 73 145 121
-10.72702503 -0.63624001 1.83587599 95 166 141
-10.72107983 -0.63543999 1.83186805 97 166 134
-10.71601009 -0.63544899 1.83186495 128 162 158
-10.71093941 -0.63545799 1.83186102 181 186 193
-10.70629025 -0.63587099 1.83386099 176 187 187
-10.70121479 -0.63587999 1.83385706 182 188 188
-10.69655323 -0.63629401 1.83585596 184 188 188
-10.69147396 -0.63630301 1.83585298 184 188 187
-10.68700123 -0.63691998 1.83885300 185 187 187
-10.68271542 -0.63773799 1.84285498 185 187 187
-10.73672771 -0.63074303 1.83385301 174 194 190
-10.73209476 -0.63115299 1.83585203 89 142 120
-10.72614193 -0.63036001 1.83184397 98 165 139
-10.72107124 -0.63036901 1.83184099 98 168 140
-10.71600056 -0.63037801 1.83183706 124 165 159
-10.71093082 -0.63038701 1.83183396 176 182 187
-10.70586014 -0.63039601 1.83183098 174 188 188
-10.70079041 -0.63040501 1.83182704 180 189 188
-10.69613171 -0.63081503 1.83382595 183 189 188
-10.69146538 -0.63122499 1.83582604 185 189 189
-10.73671913 -0.62566900 1.83382595 165 179 176
-10.73164368 -0.62567800 1.83382297 93 143 126
-10.72613335 -0.62528998 1.83181703 100 163 140
-10.72106171 -0.62529898 1.83181298 78 166 142
-10.71599197 -0.62530798 1.83181000 117 167 163
-10.71049690 -0.62492102 1.82980394 174 182 189
-10.70543098 -0.62492901 1.82980096 177 190 192
-10.70078087 -0.62533498 1.83179998 182 190 189
-10.69571114 -0.62534398 1.83179700 182 190 189
-10.69104767 -0.62574899 1.83379602 185 189 189
-10.72612381 -0.62022001 1.83178902 102 166 141
-10.72062016 -0.61983699 1.82978404 83 165 140
-10.71555424 -0.61984599 1.82977998 133 178 172
-10.71048832 -0.61985397 1.82977700 172 185 187
-10.70542240 -0.61986297 1.82977402 178 189 189
-10.70035553 -0.61987197 1.82976997 184 191 190
-10.69528866 -0.61988097 1.82976699 184 191 190
-10.69063091 -0.62028301 1.83176601 184 191 191
-10.72611523 -0.61514997 1.83176196 101 168 136
-10.72061062 -0.61477000 1.82975602 97 169 140
-10.71554470 -0.61477900 1.82975304 150 173 170
-10.71005440 -0.61440003 1.82774699 168 186 187
-10.70499229 -0.61440903 1.82774401 174 189 187
-10.69993019 -0.61441803 1.82774103 182 190 189
-10.69528103 -0.61481500 1.82974005 182 191 190
-10.69062233 -0.61521202 1.83173895 185 192 193
-10.72610569 -0.61007899 1.83173501 103 168 138
-10.72060204 -0.60970402 1.82972896 91 165 143
-10.71510696 -0.60933000 1.82772303 150 171 169
-10.71004486 -0.60933799 1.82772005 160 184 186
-10.70456314 -0.60896403 1.82571399 177 191 189
-10.69950485 -0.60897201 1.82571101 178 191 189
-10.69485855 -0.60936499 1.82771003 181 192 191
-10.69020462 -0.60975802 1.82970905 186 190 192
-10.72565937 -0.60462898 1.82970500 99 165 135
-10.72059345 -0.60463798 1.82970202 83 165 144
-10.71509838 -0.60426801 1.82769597 153 182 179
-10.70961189 -0.60389698 1.82569003 164 187 188
-10.70455360 -0.60390598 1.82568705 175 188 191
-10.69908047 -0.60353500 1.82368100 179 189 191
-10.69443798 -0.60392398 1.82568002 182 191 192
-10.68978882 -0.60431200 1.82767904 186 192 196
-10.72521305 -0.59918803 1.82767606 99 167 139
-10.72058392 -0.59957200 1.82967496 85 162 146
-10.71465969 -0.59882998 1.82566702 158 191 187
-10.70917797 -0.59846401 1.82366097 163 185 184
-10.70412445 -0.59847301 1.82365799 175 188 190
-10.69907093 -0.59848201 1.82365406 180 189 192
-10.69401741 -0.59849101 1.82365096 181 189 192
-10.68937206 -0.59887499 1.82564998 184 191 191
-10.72520447 -0.59412599 1.82764804 101 167 137
-10.72014236 -0.59413499 1.82764494 84 159 135
-10.71422195 -0.59340101 1.82363701 159 187 183
-10.70916939 -0.59341002 1.82363403 164 189 189
-10.70369530 -0.59304798 1.82162797 177 191 190
-10.69864559 -0.59305698 1.82162499 181 190 190
-10.69400787 -0.59343702 1.82362401 181 190 190
-10.68936253 -0.59381700 1.82562304 184 191 191
-10.72432137 -0.58832997 1.82361603 101 167 137
-10.72013283 -0.58907300 1.82761800 75 154 135
-10.71378517 -0.58798099 1.82160699 165 187 185
-10.70831108 -0.58762300 1.81960201 165 188 193
-10.70326519 -0.58763200 1.81959796 177 191 190
-10.69822025 -0.58764100 1.81959498 181 190 190
-10.69358730 -0.58801699 1.82159400 185 192 191
-10.68894577 -0.58839297 1.82359302 186 193 192
-10.72431183 -0.58327699 1.82358897 101 165 139
-10.71925831 -0.58328599 1.82358599 86 163 151
-10.71334743 -0.58256900 1.81957805 163 184 184
-10.70787716 -0.58221501 1.81757200 166 188 195
-10.70262623 -0.58204198 1.81656802 178 189 192
-10.69779491 -0.58223301 1.81756604 183 192 192
-10.69316578 -0.58260399 1.81956506 184 192 192
-10.68852901 -0.58297598 1.82156396 186 193 193
-10.72233486 -0.57660902 1.81455195 97 166 137
-10.71838284 -0.57751501 1.81955397 78 165 150
-10.71269417 -0.57698601 1.81654704 169 186 185
-10.70723057 -0.57663602 1.81454206 167 187 194
-10.70177555 -0.57628602 1.81253600 178 189 191
-10.69716167 -0.57665402 1.81453502 182 191 191
-10.69274521 -0.57720101 1.81753504 181 191 191
-10.68811226 -0.57756799 1.81953394 187 194 194
-10.72232628 -0.57157499 1.81452501 100 165 133
-10.71729088 -0.57158297 1.81452096 78 167 144
-10.71182823 -0.57123798 1.81251597 176 190 187
-10.70637321 -0.57089198 1.81051004 167 188 190
-10.70092583 -0.57054698 1.80850506 176 189 191
-10.69631958 -0.57090998 1.81050396 177 189 189
-10.69252968 -0.57198298 1.81650698 181 190 190
-10.68810272 -0.57252300 1.81950700 187 189 194
-10.72100544 -0.56548899 1.80849099 97 167 134
-10.71684933 -0.56619900 1.81249201 106 170 159
-10.71096134 -0.56550699 1.80848396 171 182 181
-10.70593929 -0.56551600 1.80848098 166 185 188
-10.70091724 -0.56552500 1.80847800 177 188 188
-10.69589520 -0.56553400 1.80847394 178 189 189
-10.69128513 -0.56589299 1.81047297 184 187 191
-10.68748283 -0.56695300 1.81647694 185 186 195
-10.72099590 -0.56046700 1.80846405 94 167 136
-10.71597385 -0.56047601 1.80846095 81 167 155
-10.71052265 -0.56013900 1.80645502 159 174 173
-10.70550632 -0.56014800 1.80645204 159 181 182
-10.70048809 -0.56015700 1.80644798 164 178 177
-10.69546986 -0.56016600 1.80644500 168 182 181
-10.69086361 -0.56052101 1.80844402 169 180 183
-10.68706608 -0.56156802 1.81444705 159 175 181
-10.72098732 -0.55544502 1.80843699 101 168 139
-10.71553230 -0.55511200 1.80643106 92 169 157
-10.71051407 -0.55512100 1.80642796 167 180 178
-10.70507240 -0.55478799 1.80442297 164 188 186
-10.70047855 -0.55513901 1.80642104 174 189 187
-10.69546127 -0.55514801 1.80641794 178 190 189
-10.69085503 -0.55549902 1.80841696 177 188 192
-10.68583298 -0.55550700 1.80841398 179 189 194
-10.72054100 -0.55008602 1.80640805 87 165 137
-10.71508980 -0.54975700 1.80440199 100 171 159
-10.71007729 -0.54976600 1.80439901 179 184 183
-10.70506287 -0.54977500 1.80439603 173 192 190
-10.70004940 -0.54978299 1.80439198 180 190 189
-10.69545174 -0.55013001 1.80639100 183 193 192
-10.69043446 -0.55013901 1.80638802 184 193 195
-10.68582439 -0.55048603 1.80838704 184 194 196
-10.72009468 -0.54473400 1.80437899 67 166 139
-10.71508217 -0.54474300 1.80437505 105 171 161
-10.70963860 -0.54441899 1.80236995 184 186 185
-10.70462990 -0.54442799 1.80236602 175 191 189
-10.69962025 -0.54443598 1.80236304 181 192 191
-10.69502735 -0.54477900 1.80436206 185 192 191
-10.72008610 -0.53972101 1.80435205 65 167 151
-10.71463966 -0.53939998 1.80234599 118 172 165
-10.70963001 -0.53940898 1.80234301 186 188 187
-10.70462132 -0.53941798 1.80234003 176 192 189
-10.69961071 -0.53942698 1.80233598 181 193 188
-10.69460201 -0.53943598 1.80233300 188 195 194
-10.71963978 -0.53438199 1.80232203 69 169 145
-10.71463108 -0.53439099 1.80231905 127 170 163
-10.70940685 -0.53423703 1.80131495 188 192 193
-10.70440006 -0.53424603 1.80131102 177 192 190
-10.69939232 -0.53425503 1.80130804 184 193 191
-10.69459343 -0.53442597 1.80230606 187 194 192
-10.71963120 -0.52937299 1.80229497 62 170 142
-10.71440506 -0.52922100 1.80129099 133 173 166
-10.70939827 -0.52923000 1.80128801 184 187 188
-10.70439053 -0.52923900 1.80128503 181 192 191
-10.69938278 -0.52924800 1.80128098 184 193 191
-10.69437599 -0.52925700 1.80127800 187 194 193
-10.72964096 -0.52434599 1.80227494 78 152 125
-10.72463226 -0.52435499 1.80227196 90 168 139
-10.71940422 -0.52420503 1.80126703 62 171 146
-10.71439743 -0.52421403 1.80126405 131 179 174
-10.70938873 -0.52422303 1.80126095 182 187 188
-10.70438194 -0.52423197 1.80125797 180 192 192
-10.69937515 -0.52424097 1.80125403 184 194 193
-10.69436741 -0.52424902 1.80125105 188 195 194
-10.68935966 -0.52425802 1.80124795 187 195 194
-10.68435287 -0.52426702 1.80124402 188 195 195
-10.72963333 -0.51933599 1.80224800 61 151 127
-10.72462273 -0.51934499 1.80224502 89 168 140
-10.71939468 -0.51919800 1.80124104 71 171 152
-10.71438789 -0.51920700 1.80123699 136 177 174
-10.70938015 -0.51921600 1.80123401 179 185 191
-10.70394802 -0.51891202 1.79922903 178 192 194
-10.69936562 -0.51923299 1.80122697 187 194 194
-10.69435787 -0.51924199 1.80122399 187 194 195
-10.68935108 -0.51925099 1.80122101 186 195 195
-10.68434429 -0.51925999 1.80121696 186 195 195
-10.72940063 -0.51417297 1.80122006 74 150 132
-10.72461414 -0.51433599 1.80221796 92 169 140
-10.71938610 -0.51419097 1.80121398 68 169 149
-10.71437931 -0.51419902 1.80121005 149 180 176
-10.70894337 -0.51389998 1.79920495 176 184 192
-10.70394039 -0.51390898 1.79920197 178 193 195
-10.69893646 -0.51391798 1.79919803 185 194 194
-10.69393253 -0.51392698 1.79919505 186 195 195
-10.68892956 -0.51393503 1.79919195 184 195 195
-10.68433475 -0.51425302 1.80119002 182 196 195
-10.72939205 -0.50916600 1.80119300 70 149 133
-10.72438526 -0.50917399 1.80119002 90 170 148
-10.71893978 -0.50887901 1.79918504 78 168 150
-10.71393681 -0.50888801 1.79918098 142 176 172
-10.70850468 -0.50859302 1.79717600 167 184 188
-10.70350647 -0.50860202 1.79717302 179 194 195
-10.69850731 -0.50861102 1.79716897 183 194 194
-10.69350815 -0.50861901 1.79716599 184 195 194
-10.68892097 -0.50893199 1.79916501 182 196 195
-10.68391800 -0.50894099 1.79916096 182 196 194
-10.95984459 -0.60702598 2.48888397 185 194 194
-10.95659161 -0.60898602 2.50189304 186 194 193
-10.95011520 -0.60899800 2.50188899 186 194 193
-10.94194603 -0.60795999 2.49487805 184 195 194
-10.72893810 -0.50385797 1.79916406 70 140 124
-10.72393417 -0.50386697 1.79916096 88 168 150
-10.71849442 -0.50357598 1.79715598 73 167 150
-10.71306229 -0.50328499 1.79515004 134 173 167
-10.70806694 -0.50329399 1.79514694 159 183 182
-10.70307255 -0.50330299 1.79514396 179 190 192
-10.69807816 -0.50331199 1.79514098 182 193 192
-10.69308281 -0.50332099 1.79513705 184 194 193
-10.68808842 -0.50332898 1.79513395 184 196 195
-10.68350220 -0.50363803 1.79713297 185 196 195
-10.96305656 -0.60249799 2.50186205 183 192 193
-10.95338440 -0.60058802 2.48884511 184 192 192
-10.94693375 -0.60059899 2.48884106 184 192 191
-10.94193363 -0.60149801 2.49484301 184 193 192
-10.72892857 -0.49885499 1.79913700 76 149 129
-10.72392559 -0.49886400 1.79913402 90 171 145
-10.71848488 -0.49857700 1.79712903 81 169 153
-10.71305275 -0.49829099 1.79512405 140 178 168
-10.70805931 -0.49829900 1.79512000 157 180 176
-10.70263863 -0.49801299 1.79311502 175 186 184
-10.69806862 -0.49831700 1.79511404 179 189 188
-10.69307423 -0.49832600 1.79510999 185 194 193
-10.68766785 -0.49803901 1.79310501 183 194 194
-10.68308544 -0.49834400 1.79510403 186 195 194
-10.97423458 -0.59497797 2.49482894 185 190 194
-10.96952343 -0.59601003 2.50183201 183 188 193
-10.95982170 -0.59412700 2.48881507 185 191 194
-10.95263481 -0.59370100 2.48580790 188 192 194
-10.94619083 -0.59371299 2.48580408 186 192 192
-10.94047260 -0.59416097 2.48880196 189 193 193
-10.72891998 -0.49385199 1.79911005 69 150 118
-10.72347546 -0.49357000 1.79710495 88 171 141
-10.71803856 -0.49328700 1.79509997 91 172 154
-10.71304512 -0.49329600 1.79509699 153 181 175
-10.70762062 -0.49301299 1.79309106 167 191 188
-10.70263004 -0.49302199 1.79308796 174 184 184
-10.69764042 -0.49303100 1.79308498 175 186 185
-10.69264889 -0.49304000 1.79308200 182 190 190
-10.68765926 -0.49304900 1.79307795 184 190 190
-10.68266773 -0.49305701 1.79307497 186 192 192
-10.67808056 -0.49335799 1.79507399 184 193 193
-10.67348576 -0.49365801 1.79707205 184 193 192
-10.97422314 -0.58851600 2.49479508 182 186 194
-10.96776104 -0.58852798 2.49479008 182 187 192
-10.95981121 -0.58767700 2.48878002 180 185 190
-10.95188618 -0.58682698 2.48276997 174 178 186
-10.94544792 -0.58683902 2.48276591 176 179 183
-10.93973637 -0.58728099 2.48576498 174 178 179
-10.72891140 -0.48884901 1.79908299 81 161 138
-10.72302532 -0.48828399 1.79507601 91 171 141
-10.71802998 -0.48829201 1.79507303 91 174 162
-10.71260262 -0.48801401 1.79306805 155 181 177
-10.70761204 -0.48802301 1.79306495 154 177 174
-10.70262241 -0.48803201 1.79306102 166 177 176
-10.69763088 -0.48804000 1.79305804 172 181 181
-10.69264126 -0.48804900 1.79305506 175 182 181
-10.68764973 -0.48805800 1.79305100 178 185 184
-10.68266010 -0.48806700 1.79304802 171 178 177
-10.67766857 -0.48807600 1.79304504 174 183 182
-10.67347717 -0.48865899 1.79704499 174 183 183
-10.97194195 -0.58078098 2.48575091 183 188 194
-10.96624947 -0.58121598 2.48874998 183 190 195
-10.95831108 -0.58037901 2.48273993 183 189 194
-10.95113659 -0.57996601 2.47973299 186 191 196
-10.94470596 -0.57997698 2.47972894 185 190 196
-10.93827534 -0.57998902 2.47972393 187 192 196
-10.72890186 -0.48384601 1.79905605 64 147 121
-10.72301579 -0.48328900 1.79504895 94 170 141
-10.71802235 -0.48329800 1.79504597 84 174 161
-10.71259403 -0.48302299 1.79304099 161 187 186
-10.70760345 -0.48303199 1.79303801 166 188 190
-10.70261288 -0.48304099 1.79303396 179 190 190
-10.69720173 -0.48276699 1.79102898 185 193 192
-10.69221592 -0.48277599 1.79102600 176 180 180
-10.68764114 -0.48306799 1.79302502 182 186 186
-10.68265057 -0.48307601 1.79302096 183 190 189
-10.67765999 -0.48308501 1.79301798 180 190 189
-10.67346764 -0.48366001 1.79701805 181 192 192
-10.97193146 -0.57433701 2.48571610 187 193 196
-10.96548653 -0.57434899 2.48571205 185 194 195
-10.95829964 -0.57394201 2.48270512 186 194 195
-10.95112514 -0.57353503 2.47969794 185 193 195
-10.94469357 -0.57354599 2.47969389 185 194 195
-10.93826389 -0.57355797 2.47969007 186 194 197
-10.72889328 -0.47884300 1.79902995 63 150 125
-10.72300816 -0.47829399 1.79502296 95 173 145
-10.71757603 -0.47802401 1.79301703 81 172 157
-10.71215153 -0.47775400 1.79101205 169 195 192
-10.70716572 -0.47776300 1.79100895 171 193 194
-10.70217896 -0.47777200 1.79100597 181 197 195
-10.69719315 -0.47778100 1.79100204 185 195 195
-10.69220734 -0.47778901 1.79099905 184 190 190
-10.68721962 -0.47779801 1.79099596 178 184 184
-10.68264198 -0.47808599 1.79299402 177 186 184
-10.67765141 -0.47809500 1.79299104 183 193 193
-10.67346001 -0.47866201 1.79699099 183 196 198
-10.97191906 -0.56789398 2.48568201 187 194 196
-10.96547604 -0.56790501 2.48567796 186 195 195
-10.95754528 -0.56709301 2.47966790 186 195 195
-10.95111370 -0.56710398 2.47966409 186 195 195
-10.94468307 -0.56711602 2.47965908 187 195 195
-10.93825245 -0.56712699 2.47965503 188 194 196
-10.72843933 -0.47356501 1.79700100 62 151 127
-10.72255707 -0.47302499 1.79299402 95 173 150
-10.71669292 -0.47248399 1.78898704 82 178 163
-10.71170998 -0.47249299 1.78898394 168 189 187
-10.70672798 -0.47250199 1.78898001 172 195 196
-10.70174599 -0.47251099 1.78897703 182 196 194
-10.69676399 -0.47251999 1.78897405 184 195 195
-10.69219780 -0.47280300 1.79097199 186 195 195
-10.68721199 -0.47281200 1.79096901 183 191 191
-10.68263340 -0.47309500 1.79296696 173 187 185
-10.97190762 -0.56145102 2.48564696 186 195 194
-10.96546459 -0.56146199 2.48564291 185 195 194
-10.95753288 -0.56066197 2.47963309 186 195 194
-10.95110321 -0.56067401 2.47962904 186 195 195
-10.94467163 -0.56068498 2.47962499 186 195 195
-10.93824100 -0.56069601 2.47961998 188 195 195
-10.72709370 -0.46775499 1.79096794 72 151 128
-10.72166634 -0.46749300 1.78896296 96 173 155
-10.71646500 -0.46736699 1.78795898 87 175 162
-10.71148491 -0.46737599 1.78795600 171 192 190
-10.70650482 -0.46738499 1.78795302 173 194 196
-10.70173740 -0.46752900 1.78894997 182 196 195
-10.69675541 -0.46753699 1.78894699 182 196 194
-10.69177341 -0.46754599 1.78894401 183 196 194
-10.68720341 -0.46782601 1.79094195 182 195 194
-10.68262386 -0.46810499 1.79294097 181 194 192
-10.97038364 -0.55420899 2.47960711 186 195 194
-10.96470261 -0.55461901 2.48260498 186 195 194
-10.95752239 -0.55423200 2.47959805 188 195 194
-10.95035362 -0.55384398 2.47659206 188 195 194
-10.94466019 -0.55425400 2.47958994 188 195 194
-10.93822956 -0.55426598 2.47958589 188 195 194
-10.73637676 -0.46235201 1.78794599 195 195 195
-10.73297119 -0.46329299 1.79494798 158 184 172
-10.72641563 -0.46236899 1.78793895 77 153 126
-10.72143555 -0.46237800 1.78793597 91 173 150
-10.71645641 -0.46238700 1.78793204 95 173 162
-10.71147633 -0.46239600 1.78792906 169 196 196
-10.70649624 -0.46240500 1.78792596 173 194 197
-10.70151615 -0.46241301 1.78792298 180 195 197
-10.69653606 -0.46242201 1.78791904 182 196 195
-10.69176388 -0.46256399 1.78891695 185 196 195
-10.68678188 -0.46257299 1.78891397 187 196 195
-10.68220806 -0.46284801 1.79091203 184 195 194
-10.97264194 -0.54895699 2.48857999 187 194 194
-10.96394062 -0.54778898 2.47956800 186 194 193
-10.95676708 -0.54740798 2.47656107 185 195 194
-10.94960499 -0.54702598 2.47355390 186 195 194
-10.94391823 -0.54743099 2.47655296 187 195 194
-10.93749332 -0.54744202 2.47654796 188 195 195
-10.73636818 -0.45737201 1.78791904 197 197 198
-10.73138809 -0.45738101 1.78791499 145 165 161
-10.72640800 -0.45738900 1.78791201 80 155 128
-10.72098637 -0.45713601 1.78590703 93 169 145
-10.71601009 -0.45714501 1.78590405 87 162 151
-10.71103477 -0.45715401 1.78590095 183 203 206
-10.70648670 -0.45742500 1.78789902 171 194 199
-10.70150661 -0.45743299 1.78789604 180 195 197
-10.69652653 -0.45744199 1.78789198 183 196 198
-10.69154739 -0.45745099 1.78788900 183 195 197
-10.68677330 -0.45759100 1.78888702 186 195 197
-10.68219852 -0.45786199 1.79088497 185 196 196
-10.97036076 -0.54134703 2.47953796 187 194 194
-10.96317959 -0.54097199 2.47653103 186 193 193
-10.95601177 -0.54059702 2.47352409 185 194 194
-10.94959259 -0.54060799 2.47352004 186 195 195
-10.94317532 -0.54061902 2.47351503 186 194 194
-10.93748188 -0.54101700 2.47651410 187 195 195
-10.73590469 -0.45213401 1.78588998 198 201 202
-10.73137856 -0.45240101 1.78788900 145 167 158
-10.72595310 -0.45215201 1.78588402 73 158 131
-10.72097778 -0.45216000 1.78587997 77 169 143
-10.71600246 -0.45216900 1.78587699 95 160 152
-10.71102619 -0.45217800 1.78587401 187 196 201
-10.70604992 -0.45218700 1.78586996 176 193 197
-10.70107365 -0.45219600 1.78586698 182 195 197
-10.69651890 -0.45246199 1.78786600 183 194 197
-10.69153881 -0.45247099 1.78786194 187 196 196
-10.68655872 -0.45247999 1.78785896 187 196 197
-10.68178177 -0.45261800 1.78885698 186 197 197
-10.97035027 -0.53491700 2.47950292 185 193 193
-10.96241760 -0.53416699 2.47349405 184 192 191
-10.95600033 -0.53417897 2.47348905 182 193 193
-10.94958210 -0.53419000 2.47348499 185 195 196
-10.94316387 -0.53420103 2.47348094 186 195 194
-10.93747139 -0.53459299 2.47647905 188 195 197
-10.73635006 -0.44741201 1.78786504 192 193 194
-10.73091984 -0.44716701 1.78585994 141 167 152
-10.72594547 -0.44717601 1.78585696 61 159 135
-10.72096920 -0.44718501 1.78585398 65 169 148
-10.71599293 -0.44719300 1.78585005 96 167 160
-10.71101665 -0.44720200 1.78584695 186 195 199
-10.70604134 -0.44721100 1.78584397 177 194 197
-10.70106506 -0.44722000 1.78584003 185 195 197
-10.69651031 -0.44748199 1.78783906 183 197 196
-10.69153023 -0.44749099 1.78783500 187 196 195
-10.68655014 -0.44749999 1.78783202 189 196 195
-10.68177414 -0.44763601 1.78883004 188 197 196
-10.98166180 -0.52771503 2.47347212 187 187 197
-10.97524261 -0.52772599 2.47346807 184 186 191
-10.96882534 -0.52773798 2.47346306 178 190 189
-10.96240711 -0.52774900 2.47345901 175 190 189
-10.95598888 -0.52776003 2.47345495 179 192 196
-10.94957066 -0.52777201 2.47345090 183 192 197
-10.94315243 -0.52778298 2.47344589 185 193 197
-10.93673420 -0.52779502 2.47344208 186 193 197
-10.73634148 -0.44243199 1.78783798 191 191 192
-10.73091221 -0.44219100 1.78583300 156 177 166
-10.72593594 -0.44220001 1.78583002 69 157 126
-10.72095966 -0.44220901 1.78582704 55 171 146
-10.71598434 -0.44221801 1.78582299 92 166 159
-10.71100807 -0.44222599 1.78582001 189 196 196
-10.70603180 -0.44223499 1.78581703 175 194 196
-10.70105743 -0.44224399 1.78581405 184 195 194
-10.69608116 -0.44225299 1.78580999 185 196 195
-10.69152069 -0.44251099 1.78780901 188 196 195
-10.98165035 -0.52129698 2.47343707 183 186 190
-10.97523212 -0.52130800 2.47343302 186 190 191
-10.96881390 -0.52131999 2.47342896 185 194 193
-10.96239567 -0.52133101 2.47342396 174 190 189
-10.95597839 -0.52134198 2.47341990 174 188 192
-10.94955921 -0.52135402 2.47341609 179 189 192
-10.94314098 -0.52136499 2.47341204 184 189 194
-10.93672276 -0.52137601 2.47340798 187 194 194
-10.73587894 -0.43720701 1.78580999 187 189 189
-10.73090267 -0.43721500 1.78580594 147 168 159
-10.72548103 -0.43697900 1.78380203 83 156 125
-10.71962738 -0.43649700 1.77979505 53 168 146
-10.71466446 -0.43650600 1.77979195 97 166 161
-10.71013355 -0.43676001 1.78179002 191 195 196
-10.70559502 -0.43701401 1.78378797 181 195 194
-10.70062256 -0.43702301 1.78378499 186 195 193
-10.69607162 -0.43727699 1.78578305 188 195 193
-10.69151211 -0.43753099 1.78778195 187 196 195
-10.98240757 -0.51524001 2.47640491 100 103 108
-10.97522068 -0.51489002 2.47339797 118 122 127
-10.96880341 -0.51490200 2.47339392 161 168 168
-10.96163368 -0.51455098 2.47038698 164 177 178
-10.95522213 -0.51456302 2.47038293 180 188 193
-10.94880962 -0.51457399 2.47037911 177 186 191
-10.94239902 -0.51458502 2.47037506 179 187 191
-10.93671227 -0.51495802 2.47337294 183 190 190
-10.73587036 -0.43223101 1.78578305 182 186 186
-10.73044395 -0.43199900 1.78377795 144 171 153
-10.72458172 -0.43152499 1.77977204 81 152 125
-10.71917725 -0.43129301 1.77776694 53 164 151
-10.71465492 -0.43154299 1.77976501 113 175 173
-10.70969200 -0.43155199 1.77976203 189 194 197
-10.70472908 -0.43156001 1.77975798 179 192 191
-10.70018959 -0.43180999 1.78175700 186 193 192
-10.69564342 -0.43206000 1.78375494 188 195 194
-10.69108677 -0.43230999 1.78575301 186 195 194
-10.98162842 -0.50846100 2.47336793 133 133 135
-10.97520924 -0.50847203 2.47336411 124 130 130
-10.96727753 -0.50777298 2.46735501 112 122 122
-10.96087265 -0.50778401 2.46735001 135 142 142
-10.95372295 -0.50744098 2.46434402 159 161 162
-10.94806194 -0.50780702 2.46734190 170 177 179
-10.94238663 -0.50817400 2.47034001 173 184 188
-10.93669987 -0.50853997 2.47333789 180 188 189
-10.73540688 -0.42701799 1.78375494 180 183 183
-10.72886181 -0.42619801 1.77674603 143 176 162
-10.72390461 -0.42620701 1.77674198 76 148 128
-10.71850586 -0.42597899 1.77473795 61 166 151
-10.71399117 -0.42622399 1.77673602 118 178 177
-10.70903397 -0.42623299 1.77673304 184 190 195
-10.70429134 -0.42636001 1.77772999 179 191 191
-10.69975662 -0.42660600 1.77972806 185 193 191
-10.69521427 -0.42685199 1.78172696 184 191 190
-10.69107819 -0.42733401 1.78572702 184 193 192
-10.98161602 -0.50204301 2.47333288 159 164 164
-10.97367287 -0.50135601 2.46732402 164 169 168
-10.96575356 -0.50067002 2.46131492 148 156 155
-10.95936108 -0.50068098 2.46131110 138 148 147
-10.95296764 -0.50069201 2.46130705 181 183 185
-10.94657516 -0.50070399 2.46130300 178 185 192
-10.94091320 -0.50106400 2.46430111 175 188 195
-10.93596363 -0.50177300 2.47030091 176 188 194
-10.73381042 -0.42123201 1.77672195 179 183 183
-10.72840309 -0.42100799 1.77471697 140 175 161
-10.72344971 -0.42101699 1.77471399 88 147 127
-10.71849823 -0.42102599 1.77471101 53 161 145
-10.71354485 -0.42103499 1.77470803 116 176 174
-10.70859241 -0.42104301 1.77470398 186 193 194
-10.70406818 -0.42128500 1.77670300 181 194 194
-10.69932270 -0.42140999 1.77769995 187 194 193
-10.69478512 -0.42165199 1.77969801 186 195 194
-10.69065380 -0.42212600 1.78369796 186 196 196
-10.98006725 -0.49493900 2.46729398 184 190 197
-10.97213554 -0.49426600 2.46128511 185 188 190
-10.96473408 -0.49382001 2.45727801 177 183 182
-10.95835018 -0.49383101 2.45727301 166 176 175
-10.95196533 -0.49384299 2.45726895 180 185 190
-10.94558144 -0.49385399 2.45726490 179 187 195
-10.94017124 -0.49432200 2.46126390 180 190 199
-10.93522835 -0.49501899 2.46726394 181 192 199
-10.73334694 -0.41604701 1.77469397 190 194 195
-10.72794533 -0.41582701 1.77268898 137 164 148
-10.72299576 -0.41583601 1.77268600 93 156 133
-10.71804810 -0.41584501 1.77268302 67 166 148
-10.71309853 -0.41585299 1.77267897 115 177 172
-10.70858288 -0.41609100 1.77467799 182 190 192
-10.70363140 -0.41609901 1.77467406 177 196 194
-10.69910240 -0.41633701 1.77667296 185 195 194
-10.69435596 -0.41646001 1.77767003 185 195 194
-10.69022942 -0.41692600 1.78166997 183 197 195
-10.99286747 -0.48851100 2.46726799 172 188 201
-10.98723698 -0.48885900 2.47026610 168 186 199
-10.97928715 -0.48819801 2.46425700 171 188 198
-10.97110844 -0.48742399 2.45724702 171 187 193
-10.96321011 -0.48676300 2.45123911 187 201 200
-10.95683765 -0.48677400 2.45123410 183 197 196
-10.95046616 -0.48678601 2.45123005 180 186 194
-10.94409370 -0.48679700 2.45122600 182 190 198
-10.93918514 -0.48748100 2.45722604 181 192 199
-10.93376732 -0.48794001 2.46122503 182 193 200
-10.74278164 -0.41085199 1.77267206 186 193 198
-10.73829079 -0.41108501 1.77467096 177 189 198
-10.73288536 -0.41086999 1.77266598 192 196 197
-10.72748566 -0.41065401 1.77066100 127 162 146
-10.72254181 -0.41066301 1.77065802 93 156 129
-10.71759796 -0.41067201 1.77065396 50 164 146
-10.71265316 -0.41068101 1.77065098 117 175 170
-10.70814228 -0.41091400 1.77264905 186 193 193
-10.70319271 -0.41092199 1.77264595 177 196 194
-10.69866943 -0.41115600 1.77464402 182 196 194
-10.69413662 -0.41138899 1.77664304 184 195 194
-10.68980408 -0.41173401 1.77964199 184 195 194
-10.99285603 -0.48210600 2.46723390 179 190 200
-10.98645020 -0.48211700 2.46722889 180 191 199
-10.97748089 -0.48102799 2.45721698 176 190 194
-10.96957111 -0.48038000 2.45120811 178 191 194
-10.96092987 -0.47940099 2.44219708 177 192 191
-10.95457745 -0.47941199 2.44219303 181 193 193
-10.94822407 -0.47942400 2.44218898 181 188 192
-10.94260788 -0.47976500 2.44518709 182 190 195
-10.93771076 -0.48043600 2.45118690 182 191 196
-10.93278885 -0.48110801 2.45718789 183 192 197
-10.74277306 -0.40590400 1.77264595 184 193 198
-10.73782444 -0.40591300 1.77264202 178 189 198
-10.73242188 -0.40570101 1.77063799 190 197 197
-10.72702789 -0.40549001 1.76863301 137 165 151
-10.72164154 -0.40527901 1.76662803 92 153 126
-10.71714783 -0.40550801 1.76862597 60 159 140
-10.71264458 -0.40573600 1.77062500 119 180 174
-10.70769978 -0.40574500 1.77062094 182 188 189
-10.70318508 -0.40597400 1.77261901 174 193 191
-10.69823647 -0.40598300 1.77261603 183 194 194
-10.69370842 -0.40621200 1.77461398 184 194 193
-10.68937874 -0.40655100 1.77761304 184 195 194
-10.98867607 -0.47397399 2.45118690 180 192 196
-10.98385525 -0.47463301 2.45718694 183 191 196
-10.97593212 -0.47399700 2.45117807 180 193 195
-10.96727180 -0.47303700 2.44216704 180 194 195
-10.95940590 -0.47240099 2.43615794 181 192 192
-10.95306587 -0.47241199 2.43615389 177 190 190
-10.94746876 -0.47274700 2.43915200 179 187 190
-10.94185925 -0.47308201 2.44215012 180 187 192
-10.93623829 -0.47341701 2.44514894 181 191 195
-10.93132782 -0.47407600 2.45114899 184 192 196
-10.74184036 -0.40052399 1.76861596 184 193 197
-10.73735809 -0.40074801 1.77061403 183 191 200
-10.73195934 -0.40054101 1.76860905 189 195 198
-10.72657013 -0.40033400 1.76660502 141 167 147
-10.72141075 -0.40023500 1.76560104 94 152 116
-10.71669769 -0.40035200 1.76659799 58 157 129
-10.71219921 -0.40057600 1.76859605 122 182 175
-10.70769215 -0.40080100 1.77059495 184 191 190
-10.70274734 -0.40081000 1.77059102 176 193 192
-10.69822693 -0.40103400 1.77259004 183 195 195
-10.69369888 -0.40125901 1.77458799 184 195 195
-10.68916225 -0.40148401 1.77658606 182 196 194
-10.98866463 -0.46760201 2.45115209 180 193 194
-10.98229313 -0.46761301 2.45114803 183 193 197
-10.97284508 -0.46635500 2.43913507 182 193 196
-10.96497345 -0.46573201 2.43312597 183 193 197
-10.95788193 -0.46542600 2.43011999 183 192 197
-10.95155430 -0.46543700 2.43011594 180 193 196
-10.94596958 -0.46576500 2.43311405 179 189 195
-10.94037342 -0.46609399 2.43611193 177 186 193
-10.93549538 -0.46674001 2.44211197 179 187 194
-10.92986679 -0.46706900 2.44511008 182 189 194
-10.74183083 -0.39558399 1.76858902 185 194 197
-10.73689079 -0.39559200 1.76858604 179 191 200
-10.73126984 -0.39528400 1.76558101 185 191 195
-10.72633553 -0.39529201 1.76557696 127 160 144
-10.72095680 -0.39508900 1.76357305 92 151 114
-10.71646786 -0.39531001 1.76557100 54 157 138
-10.71175289 -0.39542401 1.76656795 130 185 183
-10.70724964 -0.39564499 1.76856697 187 194 196
-10.70273781 -0.39586499 1.77056503 180 195 197
-10.69779396 -0.39587399 1.77056098 184 195 197
-10.69326973 -0.39609501 1.77256000 185 195 195
-10.68873692 -0.39631501 1.77455795 184 197 196
-10.98318291 -0.45905301 2.43010211 182 195 195
-10.97995567 -0.46030799 2.44210696 182 196 195
-10.97129631 -0.45938599 2.43309593 183 194 194
-10.96267414 -0.45846400 2.42408490 182 193 195
-10.95560169 -0.45816401 2.42107892 183 194 194
-10.95004272 -0.45848700 2.42407703 181 195 194
-10.94372845 -0.45849800 2.42407298 178 192 191
-10.93815041 -0.45881999 2.42707109 179 192 194
-10.93328953 -0.45945400 2.43307090 178 187 192
-10.92913055 -0.46039799 2.44207406 177 187 192
-10.74066734 -0.39012501 1.76355898 186 195 195
-10.73619461 -0.39034101 1.76555705 180 193 199
-10.73080730 -0.39014199 1.76355302 195 202 202
-10.72587776 -0.39015099 1.76354897 137 165 155
-10.72094822 -0.39015999 1.76354599 100 150 115
-10.71601772 -0.39016899 1.76354301 56 164 146
-10.71152592 -0.39038500 1.76554096 121 176 178
