-10.99712753 0.28358600 1.95210505 192 196 196
-10.99304485 0.28425401 1.95609903 188 195 194
-10.56698990 0.24518400 1.72902095 171 178 174
-10.56243992 0.24551301 1.73101604 171 175 174
-10.55757141 0.24550401 1.73101294 170 174 174
-10.55331421 0.24617200 1.73500705 170 174 173
-10.55024719 0.24819200 1.74699402 170 173 169
-10.54623699 0.24919800 1.75298595 170 171 170
-11.14531612 0.28866801 1.94917703 191 196 192
-11.13998890 0.28865799 1.94917405 190 196 190
-11.13170910 0.28727701 1.94117606 190 193 189
-11.12566471 0.28692400 1.93917298 190 194 193
-11.12036037 0.28691500 1.93917000 193 195 194
-11.11432934 0.28656200 1.93716800 192 195 191
-11.10974884 0.28689599 1.93916297 188 195 194
-11.10444260 0.28688699 1.93915904 192 196 196
-11.09985065 0.28722000 1.94115496 190 194 193
-11.09454060 0.28721100 1.94115102 190 192 191
-11.03746128 0.28779301 1.94510996 188 195 194
-11.03214264 0.28778401 1.94510603 188 195 193
-11.02616978 0.28743199 1.94310403 187 195 190
-11.02085590 0.28742200 1.94310105 190 194 193
-11.01554203 0.28741300 1.94309700 188 190 190
-11.01022911 0.28740299 1.94309402 189 193 193
-11.00555229 0.28773701 1.94508898 188 195 194
-11.00086784 0.28806999 1.94708395 190 194 194
-10.99711895 0.28891799 1.95207703 190 194 194
-10.99303627 0.28959501 1.95606995 188 195 194
-10.56698132 0.25004801 1.72899497 170 174 173
-10.56211662 0.25003901 1.72899199 169 173 173
-10.55725193 0.25003099 1.72898805 167 174 172
-10.55238819 0.25002199 1.72898495 172 175 171
-10.54782486 0.25035599 1.73098004 169 172 168
-10.54563427 0.25342801 1.74896300 171 173 172
-11.13096142 0.29223901 1.93914795 189 193 193
-11.12492180 0.29188201 1.93714595 188 194 192
-11.11888981 0.29152599 1.93514395 190 192 191
-11.11286831 0.29116899 1.93314195 189 194 190
-11.10829639 0.29150701 1.93513703 187 195 190
-11.10299873 0.29149699 1.93513405 188 194 190
-11.09770203 0.29148799 1.93513000 183 192 190
-11.09453201 0.29251999 1.94112206 182 188 186
-11.03546333 0.29207000 1.93908501 185 194 194
-11.03147507 0.29275501 1.94307899 186 193 193
-11.02550602 0.29239801 1.94107699 188 193 192
-11.02019691 0.29238901 1.94107294 187 190 189
-11.01488686 0.29238001 1.94106996 192 194 194
-11.01021862 0.29271701 1.94306505 189 191 191
-11.00490475 0.29270801 1.94306099 187 189 189
-11.00022507 0.29304600 1.94505703 188 190 190
-10.99553585 0.29338300 1.94705200 187 191 191
-10.99177647 0.29424199 1.95204496 187 191 191
-10.58626270 0.25477400 1.72798204 167 174 169
-10.58140087 0.25476500 1.72797894 166 171 167
-10.57670212 0.25492999 1.72897506 167 174 169
-10.57167625 0.25474799 1.72797298 167 172 167
-10.56649494 0.25439301 1.72597098 166 172 167
-10.56163692 0.25438401 1.72596800 170 174 166
-10.55677891 0.25437599 1.72596502 166 174 168
-10.55222607 0.25471300 1.72795999 170 174 168
-10.54751492 0.25487801 1.72895598 170 172 168
-10.54354191 0.25590900 1.73494804 168 170 167
-11.13021374 0.29719299 1.93712103 187 192 192
-11.12417793 0.29683200 1.93511903 184 192 191
-11.11742115 0.29611999 1.93111801 185 191 190
-11.11213207 0.29611000 1.93111503 185 191 190
-11.10684395 0.29610100 1.93111098 182 191 189
-11.10155487 0.29609200 1.93110800 185 192 190
-11.09698009 0.29643399 1.93310297 178 190 188
-11.09239578 0.29677600 1.93509805 177 189 188
-11.03744221 0.29842901 1.94505203 183 188 188
-11.03014755 0.29736599 1.93905306 186 190 190
-11.02418804 0.29700500 1.93705106 188 189 189
-11.01888657 0.29699600 1.93704796 187 187 187
-11.01423168 0.29733801 1.93904305 186 187 187
-11.00892639 0.29732800 1.93903899 186 187 190
-11.00425816 0.29767001 1.94103396 188 187 191
-10.99958229 0.29801199 1.94302905 184 187 191
-10.99489689 0.29835400 1.94502401 185 187 191
-10.99082947 0.29904699 1.94901800 185 186 194
-10.58625507 0.25963601 1.72795606 160 170 164
-10.58139229 0.25962701 1.72795296 161 169 163
-10.57620335 0.25926799 1.72595096 162 168 163
-10.57134533 0.25926000 1.72594798 162 170 163
-10.56648636 0.25925100 1.72594500 162 170 163
-10.56162834 0.25924200 1.72594202 163 171 165
-10.55677032 0.25923401 1.72593796 162 170 165
-10.55191231 0.25922501 1.72593498 163 170 167
-10.54735470 0.25956699 1.72792995 166 169 168
-10.54264069 0.25973400 1.72892594 165 167 167
-11.12946606 0.30213800 1.93509400 175 185 186
-11.12269974 0.30141801 1.93109298 174 185 187
-11.11631680 0.30087501 1.92809200 177 187 189
-11.11103439 0.30086499 1.92808795 177 187 189
-11.10575199 0.30085599 1.92808497 176 187 188
-11.10046959 0.30084699 1.92808104 175 186 185
-11.09518719 0.30083701 1.92807806 174 187 186
-11.09096813 0.30136099 1.93107200 176 183 181
-11.03544426 0.30268100 1.93902802 191 194 192
-11.02816296 0.30160499 1.93302906 191 195 191
-11.02287006 0.30159500 1.93302500 190 190 188
-11.01757717 0.30158600 1.93302202 186 188 185
-11.01292992 0.30193201 1.93501699 190 191 186
-11.00827503 0.30227801 1.93701196 188 189 189
-11.00361061 0.30262399 1.93900704 189 188 194
-10.99893856 0.30297101 1.94100201 186 188 194
-10.59597111 0.26451600 1.72793603 163 168 162
-10.59110928 0.26450700 1.72793305 159 166 161
-10.58591080 0.26414299 1.72593105 159 168 162
-10.58105278 0.26413500 1.72592795 158 165 161
-10.57586765 0.26377100 1.72392702 159 163 162
-10.57101440 0.26376301 1.72392404 157 163 162
-10.56615925 0.26375401 1.72391999 161 165 165
-10.56130505 0.26374599 1.72391701 160 167 164
-10.55676079 0.26409200 1.72591197 158 166 159
-10.55190277 0.26408300 1.72590899 159 163 162
-10.54704475 0.26407501 1.72590601 160 163 163
-10.54248428 0.26442099 1.72790098 160 162 163
-11.12798023 0.30671600 1.93106794 159 171 175
-11.12158966 0.30616599 1.92806697 159 171 175
-11.11630726 0.30615699 1.92806304 159 173 176
-11.11029911 0.30578801 1.92606103 163 172 175
-11.10502148 0.30577800 1.92605805 161 171 173
-11.09974289 0.30576900 1.92605400 162 171 173
-11.09446526 0.30576000 1.92605102 164 171 171
-11.08989620 0.30610999 1.92804599 167 173 172
-11.03278446 0.30654699 1.93100500 154 164 164
-11.02650738 0.30599800 1.92800403 171 181 181
-11.02122498 0.30598900 1.92800105 173 182 181
-11.01691818 0.30651900 1.93099499 169 179 178
-11.01162910 0.30651000 1.93099105 172 182 182
-11.00698185 0.30686000 1.93298602 175 183 184
-11.00296402 0.30757001 1.93698001 177 181 183
-10.99829674 0.30792001 1.93897498 176 181 182
-10.59596252 0.26937801 1.72791004 172 177 168
-10.59109974 0.26936901 1.72790694 166 171 169
-10.58556747 0.26864299 1.72390699 170 174 169
-10.58071327 0.26863399 1.72390401 170 173 172
-10.57553196 0.26826599 1.72190201 160 163 162
-10.57068157 0.26825801 1.72189903 161 166 164
-10.56583214 0.26824901 1.72189605 166 171 166
-10.56098270 0.26824000 1.72189295 163 169 163
-10.55644321 0.26859099 1.72388804 169 175 171
-10.55189514 0.26894200 1.72588301 166 169 165
-10.54703617 0.26893300 1.72588003 158 162 157
-10.54247475 0.26928300 1.72787499 161 163 161
-11.12686253 0.31145799 1.92804205 151 165 169
-11.12158108 0.31144899 1.92803800 147 166 169
-11.11556816 0.31107500 1.92603600 149 166 169
-11.10956383 0.31070200 1.92403400 153 166 168
-11.10429001 0.31069201 1.92403102 149 166 169
-11.09901619 0.31068301 1.92402697 152 166 170
-11.09374237 0.31067401 1.92402399 157 169 173
-11.08846760 0.31066400 1.92402005 140 162 163
-11.08389854 0.31101900 1.92601597 131 156 156
-11.08037186 0.31191999 1.93100798 125 148 146
-11.04167366 0.31094399 1.92598796 49 51 51
-11.03806305 0.31184500 1.93097997 46 50 51
-11.03178024 0.31129000 1.92797899 69 79 82
-11.02649784 0.31128001 1.92797601 101 110 115
-11.02121544 0.31127101 1.92797196 98 109 109
-11.01593304 0.31126201 1.92796898 102 113 113
-11.01065063 0.31125200 1.92796504 97 109 113
-11.00633144 0.31178901 1.93095899 103 111 114
-11.00168037 0.31214300 1.93295395 106 110 111
-10.99765396 0.31286201 1.93694794 96 104 107
-10.60567856 0.27425799 1.72789001 162 169 168
-10.60081673 0.27424899 1.72788703 160 169 168
-10.59595394 0.27423999 1.72788405 165 174 173
-10.57051182 0.27292600 1.72087395 170 179 177
-10.56566525 0.27291700 1.72087097 171 180 173
-10.56097412 0.27309000 1.72186697 167 177 172
-10.55612373 0.27308199 1.72186303 167 176 175
-10.55188560 0.27379999 1.72585702 176 183 182
-11.12685394 0.31674001 1.92801404 144 162 170
-11.12083721 0.31636301 1.92601097 140 162 169
-11.11482906 0.31598499 1.92400897 142 163 169
-11.10810280 0.31523901 1.92000902 144 163 170
-11.10211563 0.31486201 1.91800702 137 160 169
-11.09685516 0.31485200 1.91800296 141 160 170
-11.09159374 0.31484300 1.91799998 140 162 167
-11.08775043 0.31557000 1.92199397 137 159 163
-11.08318520 0.31592900 1.92398906 139 162 161
-11.07861233 0.31628799 1.92598403 122 156 151
-11.04166412 0.31622300 1.92595899 62 65 62
-11.03638554 0.31621301 1.92595601 39 43 43
-11.03044510 0.31583601 1.92395401 74 91 92
-11.02451324 0.31545800 1.92195201 114 132 133
-11.01924324 0.31544900 1.92194796 113 125 125
-11.01462269 0.31580800 1.92394304 113 125 124
-11.00934887 0.31579801 1.92393994 118 124 123
-11.00535870 0.31652501 1.92793298 120 123 123
-11.00103283 0.31706801 1.93092704 120 126 126
-10.99637794 0.31742701 1.93292201 117 127 127
-10.55157185 0.27829000 1.72383201 28 31 33
-11.12462902 0.32090500 1.92198896 137 162 167
-11.12009430 0.32126799 1.92398500 136 161 164
-11.11336040 0.32051399 1.91998398 137 159 168
-11.10664272 0.31975999 1.91598403 135 157 170
-11.10066414 0.31937799 1.91398203 133 161 171
-11.09469414 0.31899601 1.91198003 133 161 169
-11.09015846 0.31935900 1.91397500 129 161 164
-11.08490467 0.31935000 1.91397095 125 158 160
-11.08106136 0.32008600 1.91796505 131 158 157
-11.07720089 0.32082099 1.92195797 128 162 155
-11.07262802 0.32118401 1.92395306 53 110 93
-11.06389332 0.31931299 1.91395700 24 66 54
-11.05932808 0.31967601 1.91595197 33 68 58
-11.05407143 0.31966701 1.91594899 20 60 57
-11.04813385 0.31928501 1.91394699 112 125 124
-11.04693317 0.32150999 1.92593396 72 79 73
-11.04031277 0.32075599 1.92193401 71 75 65
-11.03370857 0.32000199 1.91793299 36 40 40
-11.02844810 0.31999299 1.91793001 81 99 102
-11.02384472 0.32035601 1.91992497 103 127 124
-11.01857853 0.32034600 1.91992104 105 119 118
-11.01396370 0.32070899 1.92191601 105 121 121
-11.00934029 0.32107201 1.92391098 108 121 122
-11.00406647 0.32106301 1.92390800 109 121 120
-11.00102425 0.32235700 1.93089902 109 122 121
-10.99573517 0.32234699 1.93089604 107 122 121
-11.12462044 0.32617500 1.92196095 130 158 161
-11.11935043 0.32616499 1.92195797 133 159 161
-11.11188984 0.32502601 1.91595900 135 159 164
-11.10518169 0.32426399 1.91195798 131 158 169
-11.09993267 0.32425401 1.91195500 127 157 168
-11.09396744 0.32386801 1.90995300 128 159 167
-11.08872223 0.32385901 1.90994895 123 158 165
-11.08418655 0.32422599 1.91194403 122 156 162
-11.07893753 0.32421699 1.91194105 124 152 155
-11.07368946 0.32420799 1.91193700 114 148 144
-11.06913662 0.32457501 1.91393197 51 99 82
-11.06388378 0.32456601 1.91392899 26 66 45
-11.06138325 0.32606301 1.92191899 10 46 40
-11.05406189 0.32492399 1.91592002 31 71 75
-11.04880428 0.32491499 1.91591704 114 129 128
-11.04287243 0.32452899 1.91391504 60 70 69
-11.03694820 0.32414299 1.91191304 70 73 72
-11.03236580 0.32451001 1.91390800 39 44 45
-11.02711296 0.32450101 1.91390502 93 99 103
-11.02251816 0.32486799 1.91589999 99 121 120
-11.01856995 0.32561201 1.91989303 102 118 117
-11.01330376 0.32560199 1.91989005 103 120 121
-11.00868511 0.32596999 1.92188501 100 119 121
-11.00405693 0.32633701 1.92387998 99 119 121
-11.00005817 0.32708099 1.92787302 102 117 118
-10.99572563 0.32763600 1.93086696 102 118 117
-11.11042118 0.32952201 1.91193295 133 156 164
-11.10444736 0.32913101 1.90993202 132 155 163
-11.09848118 0.32874101 1.90793002 128 154 166
-11.09323978 0.32873201 1.90792596 122 156 166
-11.08800030 0.32872301 1.90792298 119 155 162
-11.08275986 0.32871300 1.90791905 117 153 160
-11.07751942 0.32870400 1.90791595 126 154 161
-11.07227898 0.32869500 1.90791202 115 149 147
-11.06634235 0.32830501 1.90591002 34 79 66
-11.05972195 0.32753399 1.90190995 21 56 43
-11.05311775 0.32676300 1.89791000 13 46 42
-11.04789925 0.32675400 1.89790595 47 89 96
-11.04471779 0.32788700 1.90389800 123 136 138
-11.03948593 0.32787800 1.90389502 53 61 59
-11.03559589 0.32863000 1.90788805 70 74 73
-11.03102303 0.32900101 1.90988302 34 41 41
-11.02644062 0.32937300 1.91187799 93 101 101
-11.02185059 0.32974401 1.91387296 92 113 117
-11.01790619 0.33049700 1.91786599 97 115 119
-11.01329517 0.33086801 1.91986096 100 117 123
-11.00802994 0.33085901 1.91985798 97 114 121
-11.00404739 0.33161101 1.92385101 98 115 123
-10.99877262 0.33160099 1.92384803 103 115 123
-10.99571609 0.33292499 1.93083894 101 117 119
-11.10968208 0.33438501 1.90990698 133 153 167
-11.10371208 0.33399099 1.90790498 135 155 169
-11.09702778 0.33321100 1.90390396 132 155 167
-11.09179592 0.33320200 1.90390098 126 156 167
-11.08656406 0.33319300 1.90389800 128 155 163
-11.08062267 0.33279899 1.90189600 117 153 160
-11.07539558 0.33278900 1.90189195 118 149 150
-11.06946659 0.33239499 1.89988995 98 145 138
-11.06354713 0.33200100 1.89788795 34 82 66
-11.05763626 0.33160701 1.89588702 21 56 45
-11.05242062 0.33159700 1.89588296 15 52 50
-11.04720592 0.33158800 1.89587998 73 107 119
-11.04199028 0.33157900 1.89587605 122 134 138
-11.03677464 0.33157000 1.89587295 52 57 53
-11.03223133 0.33194500 1.89786804 51 53 54
-11.02901268 0.33309099 1.90385997 37 41 49
-11.02510643 0.33385199 1.90785301 105 119 118
-11.02052402 0.33422700 1.90984797 99 112 114
-11.01658821 0.33498800 1.91384101 103 121 127
-11.01263618 0.33574900 1.91783404 104 120 126
-11.00802040 0.33612400 1.91982901 102 119 127
-11.00339603 0.33649999 1.92182398 103 123 129
-10.99940205 0.33726001 1.92581797 112 119 131
-10.99570656 0.33821300 1.93080997 111 122 129
-11.10894299 0.33924001 1.90787995 134 157 164
-11.10225105 0.33845299 1.90388000 132 155 163
-11.09485531 0.33727601 1.89788103 124 151 162
-11.08963490 0.33726600 1.89787805 119 148 159
-11.08441639 0.33725700 1.89787400 120 148 161
-11.07919598 0.33724800 1.89787102 119 151 168
-11.07397747 0.33723900 1.89786696 123 153 159
-11.06805706 0.33684000 1.89586496 81 129 116
-11.06214619 0.33644199 1.89386404 17 56 31
-11.05693531 0.33643299 1.89385998 15 59 43
-11.05172443 0.33642301 1.89385700 14 55 54
-11.04651260 0.33641401 1.89385295 75 109 116
-11.04130173 0.33640501 1.89384997 120 136 135
-11.03609085 0.33639601 1.89384604 55 59 58
-11.03087997 0.33638600 1.89384305 52 54 54
-11.02700329 0.33715600 1.89783597 42 50 54
-11.02310944 0.33792499 1.90182996 73 96 102
-11.01985645 0.33908299 1.90782106 99 110 128
-11.01527023 0.33946300 1.90981603 88 101 118
-11.01132584 0.34023201 1.91380894 89 104 117
-11.00801086 0.34139001 1.91980100 95 109 121
-11.00338745 0.34176901 1.92179596 92 115 122
-11.00002956 0.34292701 1.92778802 98 108 119
-10.99633121 0.34389099 1.93278003 105 119 121
-11.10747433 0.34369400 1.90385497 159 175 176
-11.10006523 0.34250399 1.89785600 161 176 179
-11.09340191 0.34170800 1.89385605 159 176 178
-11.08747387 0.34130499 1.89185405 152 170 171
-11.08226681 0.34129599 1.89185095 153 169 176
-11.07705975 0.34128699 1.89184701 140 150 170
-11.07185364 0.34127799 1.89184403 144 169 172
-11.06664658 0.34126899 1.89184105 69 114 102
-11.06144047 0.34125900 1.89183700 20 49 31
-11.05623341 0.34125000 1.89183402 18 53 41
-11.05102634 0.34124100 1.89182997 16 55 55
-11.04582024 0.34123200 1.89182699 114 147 153
-11.04129219 0.34161600 1.89382195 130 149 152
-11.03608131 0.34160700 1.89381802 90 98 93
-11.03087044 0.34159699 1.89381504 96 108 103
-11.02565861 0.34158799 1.89381099 82 100 97
-11.02111053 0.34197199 1.89580595 107 129 130
-11.01787186 0.34314299 1.90179801 103 124 130
-11.01460743 0.34431401 1.90778995 115 132 134
-11.01066685 0.34509099 1.91178298 124 136 138
-11.00800228 0.34665501 1.91977298 125 137 136
-11.00401974 0.34743300 1.92376602 118 136 135
-11.00097656 0.34880000 1.93075705 120 136 138
-10.99822235 0.35036400 1.93874598 113 132 134
-11.10527515 0.34773299 1.89783204 187 191 191
-11.09787846 0.34653100 1.89183295 177 177 177
-11.09195042 0.34612399 1.88983095 150 155 156
-11.08603001 0.34571701 1.88783002 150 156 155
-11.08154488 0.34610501 1.88982403 169 173 174
-11.07634163 0.34609601 1.88982105 187 188 192
-11.07114029 0.34608701 1.88981795 168 188 185
-11.06593704 0.34607801 1.88981402 56 105 86
-11.06143093 0.34646600 1.89180899 20 46 29
-11.05553246 0.34605899 1.88980699 12 43 37
-11.05101681 0.34644800 1.89180195 33 74 71
-11.04580975 0.34643799 1.89179897 166 182 182
-11.04060364 0.34642899 1.89179504 177 184 185
-11.03539658 0.34641999 1.89179206 177 184 182
-11.03019047 0.34641099 1.89178801 166 183 180
-11.02565002 0.34679899 1.89378297 164 180 177
-11.02043915 0.34678999 1.89377999 170 183 182
-11.01522827 0.34678099 1.89377606 172 189 188
-11.01067162 0.34716901 1.89577103 176 187 186
-11.00740719 0.34835199 1.90176296 173 183 183
-11.00605488 0.35072801 1.91374898 166 178 177
-11.00336838 0.35230899 1.92173898 163 175 173
-11.10380554 0.35214800 1.89380705 196 197 196
-11.09714413 0.35133499 1.88980699 133 134 132
-11.09049797 0.35052201 1.88580704 58 66 66
-11.08530426 0.35051301 1.88580298 56 64 64
-11.08010960 0.35050401 1.88580000 118 121 123
-11.07491493 0.35049501 1.88579595 187 191 192
-11.07042599 0.35088801 1.88779104 158 178 175
-11.06522655 0.35087800 1.88778806 37 75 53
-11.06002903 0.35086900 1.88778400 22 54 34
-11.05552292 0.35126200 1.88977897 11 40 36
-11.05031967 0.35125300 1.88977599 63 93 88
-11.04511833 0.35124299 1.88977206 190 193 192
-11.03991508 0.35123399 1.88976896 176 180 181
-11.03538799 0.35162699 1.89176404 179 183 183
-11.03018093 0.35161701 1.89175999 177 186 186
-11.02497387 0.35160801 1.89175701 186 190 189
-11.01976681 0.35159901 1.89175403 183 185 187
-11.01456070 0.35159001 1.89174998 166 180 182
-11.01000786 0.35198200 1.89374495 161 179 182
-11.00479698 0.35197300 1.89374197 161 178 179
-11.00087833 0.35276699 1.89773500 166 185 186
-11.00335884 0.35757899 1.92171097 167 187 185
-11.10306740 0.35695300 1.89178002 191 200 199
-11.09568310 0.35572600 1.88578200 86 93 92
-11.08976746 0.35531101 1.88378000 16 20 21
-11.08457661 0.35530099 1.88377702 20 22 22
-11.07938671 0.35529199 1.88377297 83 86 90
-11.07419682 0.35528299 1.88376999 188 192 192
-11.06971169 0.35567999 1.88576496 142 152 147
-11.06451797 0.35567099 1.88576102 27 59 42
-11.06002045 0.35606700 1.88775599 30 59 38
-11.05482101 0.35605800 1.88775301 20 47 39
-11.04962254 0.35604900 1.88774896 89 117 112
-11.04442501 0.35604000 1.88774598 188 190 189
-11.03922558 0.35603100 1.88774300 174 182 185
-11.03470325 0.35642701 1.88973701 172 180 183
-11.02950096 0.35641801 1.88973403 173 182 182
-11.02429771 0.35640901 1.88973105 173 181 184
-11.01975822 0.35680601 1.89172494 175 181 184
-11.01455116 0.35679701 1.89172196 174 181 181
-11.00934505 0.35678700 1.89171898 174 181 181
-11.00413799 0.35677800 1.89171505 172 181 180
-10.99957657 0.35717499 1.89371002 174 183 183
-10.99693298 0.35878900 1.90170002 175 184 184
-11.07866478 0.36007199 1.88174701 72 57 58
-11.07347870 0.36006299 1.88174403 180 174 174
-11.06899834 0.36046401 1.88373899 132 139 131
-11.06380844 0.36045501 1.88373494 26 48 32
-11.05861759 0.36044499 1.88373196 29 53 40
-11.05412006 0.36084601 1.88572705 16 48 42
-11.04892635 0.36083701 1.88572299 134 151 149
-11.04373169 0.36082801 1.88572001 189 189 189
-11.03921700 0.36122900 1.88771498 171 176 177
-11.03401947 0.36122000 1.88771105 174 181 181
-11.02882004 0.36121100 1.88770795 175 182 183
-11.02362156 0.36120099 1.88770401 177 182 182
-11.01908588 0.36160201 1.88969898 177 181 182
-11.01388359 0.36159301 1.88969600 176 180 180
-11.00868130 0.36158401 1.88969195 176 181 181
-11.00347805 0.36157501 1.88968897 174 183 182
-10.99892235 0.36197600 1.89168406 177 182 181
-10.99435711 0.36237699 1.89367795 172 183 182
-11.05341911 0.36562601 1.88370001 29 47 44
-11.04822922 0.36561701 1.88369703 160 171 170
-11.04303932 0.36560801 1.88369405 184 186 187
-11.03784943 0.36559901 1.88369000 171 175 175
-11.03265858 0.36558899 1.88368702 174 181 180
-11.02814007 0.36599499 1.88568199 174 179 180
-11.02294636 0.36598501 1.88567805 176 180 181
-11.01775169 0.36597601 1.88567495 179 180 182
-11.01255703 0.36596701 1.88567102 178 180 181
-11.00736332 0.36595801 1.88566804 174 181 180
-11.00216866 0.36594900 1.88566399 176 183 182
-10.99826717 0.36676800 1.88965702 174 181 180
-10.99370575 0.36717299 1.89165199 171 182 180
-11.02160263 0.37034199 1.88165402 173 175 179
-11.01641655 0.37033299 1.88164997 175 177 177
-11.01123142 0.37032399 1.88164699 171 177 176
-11.00604630 0.37031499 1.88164306 173 179 182
-11.00150967 0.37072399 1.88363802 172 179 179
-10.99696636 0.37113401 1.88563299 173 179 178
-10.99305534 0.37196100 1.88962603 173 179 178
-10.99566460 0.37548199 1.88160896 171 174 174
-10.99112129 0.37589601 1.88360298 171 174 175
-10.59658813 0.57621300 2.13126397 15 18 14
-10.59087467 0.57620299 2.13125992 15 17 16
-10.58487797 0.57566202 2.12925911 15 17 16
-10.57916927 0.57565200 2.12925506 15 17 16
-10.59657764 0.58192599 2.13123298 15 18 13
-10.59086514 0.58191597 2.13122892 17 19 13
-10.58515167 0.58190602 2.13122606 15 19 13
-10.57915878 0.58135998 2.12922406 15 18 14
-10.60829353 0.58819902 2.13320708 16 19 15
-10.60257721 0.58818901 2.13320303 17 18 14
-10.59656811 0.58763897 2.13120198 17 19 13
-10.59056568 0.58708900 2.12920094 17 18 13
-10.58485699 0.58707899 2.12919688 18 18 14
-10.57914925 0.58706897 2.12919402 16 17 15
-10.57343960 0.58705902 2.12918997 17 17 14
-10.56732368 0.58623898 2.12618995 17 17 15
-10.56162071 0.58622903 2.12618589 19 17 15
-10.55565643 0.58567899 2.12418509 17 16 14
-10.60903835 0.59527498 2.13817000 18 20 17
-10.60256672 0.59390497 2.13317299 19 20 16
-10.59655666 0.59335202 2.13117194 16 19 16
-10.59055614 0.59279799 2.12917089 18 18 15
-10.58484745 0.59278703 2.12916708 17 18 14
-10.57871819 0.59196198 2.12616706 16 17 15
-10.57273960 0.59140801 2.12416601 18 18 17
-10.56704235 0.59139800 2.12416196 17 17 17
-10.56134415 0.59138799 2.12415791 18 17 17
-10.55564594 0.59137702 2.12415504 17 17 17
-10.65618706 0.60327601 2.14615798 23 25 21
-10.65044308 0.60326600 2.14615393 22 26 22
-10.64469910 0.60325599 2.14615107 20 25 21
-10.63895416 0.60324597 2.14614701 18 26 21
-10.63193703 0.60104299 2.13815403 20 25 23
-10.62699509 0.60240299 2.14314294 23 23 23
-10.62048340 0.60102302 2.13814592 20 23 23
-10.61475468 0.60101300 2.13814306 22 23 23
-10.60872555 0.60045499 2.13614202 21 23 23
-10.60225964 0.59907401 2.13114500 22 22 21
-10.59625435 0.59851599 2.12914395 18 20 19
-10.59054565 0.59850597 2.12913990 19 19 18
-10.58483696 0.59849602 2.12913609 17 18 17
-10.57842827 0.59711599 2.12413907 15 18 14
-10.57273006 0.59710598 2.12413502 18 17 13
-10.56703186 0.59709603 2.12413192 17 18 14
-10.56093216 0.59626400 2.12113190 18 17 16
-10.55523968 0.59625298 2.12112808 15 18 16
-10.54954815 0.59624302 2.12112403 17 17 16
-10.54385662 0.59623301 2.12112093 18 18 17
-10.65617657 0.60901999 2.14612699 24 24 23
-10.65043259 0.60900998 2.14612389 21 26 22
-10.64468765 0.60900003 2.14612007 22 25 21
-10.63894367 0.60899001 2.14611602 20 24 24
-10.63272285 0.60815102 2.14311600 19 23 22
-10.62619972 0.60676003 2.13811898 22 22 22
-10.62047195 0.60675001 2.13811588 21 23 23
-10.61443901 0.60618800 2.13611388 21 23 22
-10.60826397 0.60534900 2.13311505 23 23 23
-10.60225010 0.60478699 2.13111401 21 23 23
-10.59624386 0.60422498 2.12911296 20 22 22
-10.59053612 0.60421503 2.12910891 20 20 20
-10.58440018 0.60337597 2.12610888 19 19 18
-10.57841778 0.60281402 2.12410808 16 18 17
-10.57271957 0.60280401 2.12410498 17 17 17
-10.56661415 0.60196501 2.12110496 17 18 14
-10.56092167 0.60195500 2.12110090 17 18 14
-10.55523014 0.60194498 2.12109709 16 19 15
-10.54927921 0.60138297 2.11909604 18 19 15
-10.54359055 0.60137302 2.11909294 20 19 15
-11.05512142 0.61269099 2.13637495 19 19 18
-11.04939842 0.61268097 2.13637090 22 22 21
-11.04274368 0.61183500 2.13337111 23 25 21
-11.03702736 0.61182499 2.13336706 22 24 23
-11.03222847 0.61264998 2.13635993 21 24 23
-11.02650547 0.61264002 2.13635612 22 24 20
-11.02078247 0.61263001 2.13635206 20 21 17
-11.01505756 0.61262000 2.13634801 18 18 17
-10.67914391 0.61480498 2.14611197 17 19 19
-10.67339993 0.61479503 2.14610791 19 19 19
-10.66799927 0.61534202 2.14810109 19 19 20
-10.66191101 0.61477500 2.14610004 22 22 22
-10.65566444 0.61392999 2.14310098 22 24 24
-10.64992619 0.61391997 2.14309692 22 24 24
-10.64418793 0.61391002 2.14309311 23 23 23
-10.63812828 0.61334300 2.14109206 21 23 23
-10.63191700 0.61249799 2.13809204 19 21 20
-10.62619019 0.61248797 2.13808799 20 21 18
-10.62015343 0.61192101 2.13608694 18 21 18
-10.61397076 0.61107600 2.13308811 20 24 20
-10.60825443 0.61106598 2.13308406 20 20 19
-10.60223961 0.61049998 2.13108301 19 19 18
-10.59623432 0.60993302 2.12908196 19 19 18
-10.59052563 0.60992301 2.12907791 19 19 19
-10.58438969 0.60907799 2.12607908 18 18 18
-10.57840824 0.60851198 2.12407804 15 17 16
-10.57271004 0.60850197 2.12407398 17 17 16
-10.56660366 0.60765702 2.12107396 18 17 13
-10.56091213 0.60764700 2.12107110 16 17 15
-10.55495739 0.60707998 2.11907005 17 18 18
-10.54926872 0.60707003 2.11906600 18 18 18
-10.54358101 0.60706002 2.11906195 18 18 18
-10.53789425 0.60705000 2.11905789 18 18 18
-10.53220558 0.60703999 2.11905503 18 18 17
-10.52651882 0.60702997 2.11905098 17 17 16
-10.52023506 0.60562903 2.11405396 17 17 16
-11.05511093 0.61841398 2.13634396 19 19 19
-11.04938793 0.61840397 2.13633990 22 22 22
-11.04273415 0.61755198 2.13333988 23 24 19
-11.03701687 0.61754203 2.13333607 21 22 17
-11.03221798 0.61837298 2.13632894 21 23 19
-11.02649498 0.61836302 2.13632488 21 21 18
-11.02077198 0.61835301 2.13632107 21 19 16
-11.01504803 0.61834300 2.13631701 19 19 15
-10.67948532 0.62111002 2.14807796 19 18 15
-10.67338943 0.62053901 2.14607692 17 18 15
-10.66764545 0.62052900 2.14607310 18 17 17
-10.66139221 0.61967802 2.14307308 19 19 19
-10.65565395 0.61966801 2.14306998 19 20 20
-10.64991570 0.61965799 2.14306593 22 22 21
-10.64385223 0.61908698 2.14106488 21 21 20
-10.63763523 0.61823601 2.13806510 19 20 17
-10.63190746 0.61822498 2.13806105 18 20 17
-10.62586594 0.61765498 2.13606000 19 20 16
-10.62014198 0.61764401 2.13605690 18 19 15
-10.61396122 0.61679298 2.13305712 18 19 16
-10.60824394 0.61678302 2.13305306 18 19 16
-10.60223007 0.61621201 2.13105202 17 17 16
-10.59622383 0.61564201 2.12905097 18 18 18
-10.59051609 0.61563200 2.12904811 18 18 17
-10.58438015 0.61478001 2.12604809 17 18 15
-10.57839775 0.61421001 2.12404704 17 17 16
-10.57269955 0.61420000 2.12404299 17 17 16
-10.56659412 0.61334902 2.12104392 19 17 16
-10.56063366 0.61277801 2.11904311 17 17 16
-10.55494690 0.61276799 2.11903906 17 18 15
-10.54887009 0.61191702 2.11603904 18 18 15
-10.54318905 0.61190701 2.11603594 19 18 16
-10.53725624 0.61133599 2.11403489 17 17 16
-10.53157902 0.61132598 2.11403108 17 17 16
-10.52590179 0.61131603 2.11402702 16 18 17
-10.52022457 0.61130601 2.11402392 18 18 18
-11.06336117 0.62133002 2.12633395 19 19 18
-11.05765915 0.62132001 2.12632990 18 18 17
-11.05352879 0.62272400 2.13132000 18 18 18
-11.04781628 0.62271303 2.13131595 19 19 18
-11.04210281 0.62270302 2.13131189 20 20 16
-11.03639126 0.62269300 2.13130808 20 19 15
-11.03129005 0.62324899 2.13330197 20 20 16
-11.02557278 0.62323803 2.13329792 17 20 16
-11.01985645 0.62322801 2.13329411 20 19 15
-11.01503754 0.62406600 2.13628697 18 17 13
-11.00931454 0.62405598 2.13628292 18 17 14
-11.00359154 0.62404603 2.13627911 18 17 14
-10.99845505 0.62460101 2.13827300 16 16 16
-10.99272823 0.62459099 2.13826895 17 17 17
-10.98700047 0.62458098 2.13826489 16 17 17
-10.98127270 0.62457103 2.13826108 18 18 18
-10.97640038 0.62540901 2.14125395 18 18 18
-10.97066689 0.62539899 2.14124990 18 18 18
-10.96549416 0.62595397 2.14324307 18 18 17
-10.95975685 0.62594402 2.14323997 18 18 16
-10.95484829 0.62678099 2.14623189 17 17 16
-10.94910431 0.62677097 2.14622808 17 17 16
-10.94390488 0.62732601 2.14822197 17 17 16
-10.93815613 0.62731600 2.14821792 17 17 16
-10.93321228 0.62815398 2.15121007 17 17 16
-10.92745781 0.62814403 2.15120602 17 17 16
-10.92223072 0.62869900 2.15319991 15 18 15
-10.91647243 0.62868899 2.15319610 17 19 14
-10.91149330 0.62952602 2.15618801 16 17 16
-10.90572739 0.62951601 2.15618396 15 18 16
-10.90047264 0.63007098 2.15817809 16 16 16
-10.89470387 0.63006097 2.15817404 17 17 16
-10.69061184 0.62631398 2.14605689 16 17 17
-10.68486786 0.62630397 2.14605308 16 16 16
-10.67912388 0.62629402 2.14604998 17 17 16
-10.67337894 0.62628299 2.14604592 17 18 12
-10.66711998 0.62542599 2.14304590 18 18 14
-10.66138172 0.62541598 2.14304209 17 17 16
-10.65564442 0.62540603 2.14303899 18 18 18
-10.64990616 0.62539500 2.14303493 18 19 19
-10.64384174 0.62481999 2.14103389 19 19 18
-10.63762379 0.62396300 2.13803411 18 18 15
-10.63189697 0.62395298 2.13803101 17 19 14
-10.62585640 0.62337798 2.13602996 17 18 14
-10.62013245 0.62336802 2.13602591 17 18 15
-10.61395073 0.62251002 2.13302588 18 18 14
-10.60793304 0.62193501 2.13102508 18 19 14
-10.60221958 0.62192500 2.13102102 17 17 15
-10.59621429 0.62134999 2.12902093 17 17 16
-10.59050560 0.62133998 2.12901711 17 17 17
-10.58436966 0.62048298 2.12601709 16 18 14
-10.57838821 0.61990798 2.12401605 17 17 16
-10.57227516 0.61905003 2.12101698 16 17 16
-10.56631184 0.61847597 2.11901593 18 17 16
-10.56062412 0.61846602 2.11901212 19 18 15
-10.55454063 0.61760801 2.11601305 19 18 14
-10.54885960 0.61759800 2.11600900 17 18 15
-10.54292393 0.61702299 2.11400795 18 18 15
-10.53699589 0.61644900 2.11200690 17 17 16
-10.53095341 0.61559099 2.10900807 17 17 16
-10.52528572 0.61558098 2.10900402 16 17 16
-10.51938057 0.61500698 2.10700297 17 17 17
-10.51371861 0.61499703 2.10699892 17 18 18
-10.50782585 0.61442202 2.10499811 18 18 18
-10.50216770 0.61441201 2.10499501 17 17 17
-10.49518108 0.61101300 2.09300804 17 17 16
-10.48846054 0.60817999 2.08301902 17 18 17
-10.48359489 0.61014599 2.09000492 17 18 17
-10.47755146 0.60900700 2.08600712 20 19 16
-10.47162533 0.60815001 2.08300710 18 19 18
-10.46581268 0.60757500 2.08100700 19 19 18
-10.45971394 0.60615402 2.07600999 18 19 18
-10.45373154 0.60501498 2.07201195 16 19 19
-10.44814396 0.60500503 2.07200909 20 21 21
-10.44163609 0.60217202 2.06201911 19 21 21
-10.43606758 0.60216200 2.06201601 20 22 22
-10.42953587 0.59904599 2.05102801 21 23 22
-11.06494427 0.62845600 2.13129592 18 19 15
-11.05764866 0.62702203 2.12629890 18 17 17
-11.05194664 0.62701201 2.12629509 19 17 17
-11.04718113 0.62785703 2.12928796 18 18 14
-11.04147339 0.62784600 2.12928391 19 18 14
-11.03576374 0.62783599 2.12928009 16 17 13
-11.03005600 0.62782598 2.12927604 17 17 16
-11.02495480 0.62838602 2.13126993 17 18 17
-11.01984596 0.62894499 2.13326311 19 18 15
-11.01412868 0.62893498 2.13326001 18 17 14
-11.00930500 0.62977898 2.13625193 17 17 17
-11.00358200 0.62976903 2.13624811 17 17 16
-10.99785805 0.62975901 2.13624406 16 16 16
-10.99213505 0.62974900 2.13624096 17 17 17
-10.98698997 0.63030797 2.13823390 15 17 16
-10.98126316 0.63029802 2.13823009 18 18 18
-10.97638988 0.63114202 2.14122295 18 18 18
-10.97065639 0.63113201 2.14121890 18 18 17
-10.96548367 0.63169199 2.14321208 18 17 16
-10.95974636 0.63168198 2.14320898 17 18 14
-10.95400810 0.63167101 2.14320493 19 18 14
-10.94909382 0.63251603 2.14619708 16 17 13
-10.94389534 0.63307500 2.14819098 17 17 15
-10.93814564 0.63306499 2.14818692 17 17 13
-10.93320179 0.63390899 2.15117908 16 16 16
-10.92744827 0.63389897 2.15117502 17 17 17
-10.92222118 0.63445801 2.15316892 17 17 17
-10.91646194 0.63444799 2.15316510 17 17 16
-10.91070271 0.63443702 2.15316105 15 17 16
-10.90571690 0.63528103 2.15615296 15 16 16
-10.89995193 0.63527101 2.15614891 16 16 15
-10.89469433 0.63582999 2.15814304 16 16 15
-10.69060230 0.63205802 2.14602590 17 17 16
-10.68485832 0.63204801 2.14602304 16 16 16
-10.67911339 0.63203800 2.14601898 16 17 13
-10.67336941 0.63202798 2.14601493 16 17 13
-10.66711044 0.63116401 2.14301491 16 18 12
-10.66137218 0.63115400 2.14301205 16 17 13
-10.65563393 0.63114399 2.14300799 17 17 16
-10.64956474 0.63056397 2.14100695 16 18 17
-10.64334202 0.62970001 2.13800693 16 18 18
-10.63761425 0.62968999 2.13800311 16 16 15
-10.63188744 0.62967998 2.13800001 14 18 12
-10.62584591 0.62910098 2.13599896 16 17 13
-10.62012196 0.62909102 2.13599491 17 17 14
-10.61394119 0.62822700 2.13299489 18 17 13
-10.60792160 0.62764800 2.13099408 16 18 12
-10.60221004 0.62763798 2.13099098 18 18 14
-10.59620380 0.62705898 2.12898993 15 17 17
-10.59006214 0.62619501 2.12598991 17 17 17
-10.58436012 0.62618500 2.12598705 17 17 16
-10.57837772 0.62560600 2.12398601 17 17 16
-10.57226467 0.62474197 2.12098598 15 17 16
-10.56630230 0.62416297 2.11898494 17 17 17
-10.56021214 0.62330002 2.11598611 19 17 17
-10.55453110 0.62328899 2.11598206 19 17 16
-10.54859066 0.62270999 2.11398101 15 17 16
-10.54265785 0.62213099 2.11197996 17 17 17
-10.53660870 0.62126797 2.10898089 17 17 17
-10.53069592 0.62068897 2.10698009 18 18 18
-10.52503300 0.62067902 2.10697603 17 17 17
-10.51913261 0.62010002 2.10497499 18 18 17
-10.51312256 0.61923599 2.10197592 19 19 19
-10.50747108 0.61922598 2.10197210 17 17 17
-10.50159359 0.61864799 2.09997106 17 17 15
-10.49517059 0.61664599 2.09297800 17 17 16
-10.48877716 0.61464500 2.08598399 14 17 16
-10.48283863 0.61378199 2.08298492 15 17 16
-10.47701836 0.61320299 2.08098412 17 18 17
-10.47120571 0.61262399 2.07898307 17 19 19
-10.46560192 0.61261398 2.07897902 17 19 19
-10.45970440 0.61175102 2.07597995 15 19 19
-10.45391464 0.61117202 2.07397890 17 19 19
-10.44813442 0.61059397 2.07197809 15 19 19
-10.44208527 0.60916102 2.06698203 17 19 19
-10.43605804 0.60772902 2.06198597 18 20 20
-10.43013954 0.60658199 2.05798793 19 21 21
-11.07409954 0.63218099 2.12428188 19 19 19
-11.06840229 0.63217098 2.12427807 16 18 17
-11.06270409 0.63216102 2.12427497 15 18 14
-11.05700588 0.63215101 2.12427092 16 16 15
-11.05130768 0.63214099 2.12426710 17 17 16
-11.04623413 0.63270402 2.12626100 16 16 16
-11.04053211 0.63269401 2.12625694 17 17 16
-11.03575420 0.63354498 2.12924910 15 16 12
-11.03004646 0.63353503 2.12924600 17 17 16
-11.02433681 0.63352501 2.12924194 13 17 16
-11.01923180 0.63408798 2.13123488 16 16 15
-11.01411915 0.63465202 2.13322902 16 17 13
-11.00840187 0.63464200 2.13322496 16 16 16
-11.00357056 0.63549203 2.13621712 16 16 16
-10.99784756 0.63548201 2.13621402 15 17 17
-10.99212456 0.63547200 2.13620996 15 17 17
-10.98640156 0.63546199 2.13620591 17 17 16
-10.98125267 0.63602602 2.13820004 17 17 17
-10.97638035 0.63687599 2.14119196 17 17 17
-10.97064590 0.63686597 2.14118791 19 17 16
-10.96491337 0.63685602 2.14118409 19 17 17
-10.95973587 0.63741899 2.14317799 19 17 16
-10.95399761 0.63740897 2.14317393 18 17 13
-10.94826031 0.63739902 2.14317012 16 17 13
-10.94252205 0.63738900 2.14316607 18 17 13
-10.93759537 0.63823903 2.14615893 16 17 13
-10.93238831 0.63880301 2.14815211 17 17 16
-10.92743683 0.63965303 2.15114403 17 17 17
-10.92168331 0.63964301 2.15113997 17 17 17
-10.91592789 0.63963300 2.15113711 17 17 16
-10.91069317 0.64019603 2.15313005 17 17 17
-10.90493393 0.64018601 2.15312600 17 17 17
-10.89917469 0.64017600 2.15312195 16 16 16
-10.89417553 0.64102602 2.15611506 16 16 15
-10.88891411 0.64159000 2.15810800 18 17 13
-10.88364315 0.64215302 2.16010094 16 16 15
-10.69095230 0.63837600 2.14799309 18 16 15
-10.68484783 0.63779199 2.14599204 15 15 14
-10.67910290 0.63778198 2.14598799 15 16 12
-10.67283821 0.63691199 2.14298797 15 16 12
-10.66709995 0.63690197 2.14298391 16 18 12
-10.66136169 0.63689202 2.14298105 16 18 12
-10.65528870 0.63630801 2.14098001 16 18 12
-10.64955521 0.63629800 2.14097595 16 17 13
-10.64333153 0.63542801 2.13797593 16 16 15
-10.63760376 0.63541800 2.13797307 18 17 13
-10.63155937 0.63483399 2.13597202 16 16 15
-10.62583542 0.63482398 2.13596797 18 17 13
-10.61964798 0.63395399 2.13296795 15 15 14
-10.61393070 0.63394397 2.13296509 17 16 12
-10.60791206 0.63336098 2.13096404 18 17 13
-10.60190296 0.63277698 2.12896299 16 16 15
-10.59619427 0.63276702 2.12895894 17 17 17
-10.59005165 0.63189697 2.12596011 17 17 17
-10.58434963 0.63188702 2.12595606 17 17 17
-10.57836723 0.63130403 2.12395501 17 17 16
-10.57197857 0.62986100 2.11895800 17 18 14
-10.56588364 0.62899101 2.11595893 19 19 18
-10.56020164 0.62898099 2.11595511 18 18 17
-10.55425835 0.62839699 2.11395407 20 18 17
-10.54832077 0.62781399 2.11195302 18 18 17
-10.54226589 0.62694401 2.10895395 17 17 16
-10.53634834 0.62636101 2.10695291 17 17 17
-10.53043938 0.62577802 2.10495210 18 18 18
-10.52478123 0.62576801 2.10494900 18 18 18
-10.51876545 0.62489802 2.10194898 16 18 18
-10.51287937 0.62431502 2.09994793 18 18 18
-10.50688744 0.62344497 2.09694910 17 17 16
-10.50045490 0.62142903 2.08995509 16 18 17
-10.49438572 0.62027299 2.08595800 18 18 18
-10.48844147 0.61940402 2.08295798 17 17 16
-10.48261642 0.61882102 2.08095694 17 17 16
-10.47679996 0.61823797 2.07895708 17 17 16
-10.47119617 0.61822802 2.07895303 19 19 18
-10.46529198 0.61735803 2.07595396 19 19 18
-10.45949841 0.61677498 2.07395291 17 19 19
-10.45342541 0.61533302 2.06895590 18 18 18
-10.44765377 0.61475003 2.06695604 18 18 17
-10.44161606 0.61330700 2.06195903 18 18 17
-10.43568897 0.61215103 2.05796194 19 19 19
-11.06269360 0.63785899 2.12424397 16 17 15
-11.05699635 0.63784897 2.12423992 15 17 12
-11.05129814 0.63783902 2.12423706 16 16 16
-11.04559994 0.63782799 2.12423301 16 16 16
-11.04052162 0.63839602 2.12622595 16 15 15
-11.03481960 0.63838601 2.12622309 15 15 14
-11.03003597 0.63924301 2.12921500 16 17 13
-11.02432728 0.63923299 2.12921095 16 16 15
-11.01861763 0.63922298 2.12920690 17 17 16
-11.01350880 0.63979101 2.13120103 16 16 15
-11.00839233 0.64035898 2.13319397 16 16 16
-11.00267506 0.64034897 2.13319111 17 17 17
-10.99783802 0.64120603 2.13618302 17 17 17
-10.99211502 0.64119500 2.13617897 16 18 18
-10.98639107 0.64118499 2.13617492 16 16 15
-10.98124218 0.64175302 2.13816905 16 17 13
-10.97551537 0.64174300 2.13816500 15 17 17
-10.97063637 0.64260000 2.14115691 17 17 17
-10.96490192 0.64258999 2.14115310 19 17 17
-10.95916939 0.64257902 2.14115000 18 16 16
-10.95398808 0.64314699 2.14314294 19 16 14
-10.94824982 0.64313698 2.14313889 18 16 15
-10.94251156 0.64312702 2.14313507 16 17 13
-10.93758488 0.64398402 2.14612794 18 17 14
-10.93184090 0.64397299 2.14612389 17 18 14
-10.92662907 0.64454103 2.14811707 16 16 15
-10.92167187 0.64539802 2.15110898 14 16 16
-10.91591835 0.64538801 2.15110612 17 17 17
-10.91016293 0.64537698 2.15110207 16 16 16
-10.90492439 0.64594501 2.15309501 16 16 16
-10.89916515 0.64593500 2.15309095 18 18 18
-10.89416599 0.64679098 2.15608406 16 16 15
-10.88840103 0.64678103 2.15608001 16 17 13
-10.88313389 0.64734900 2.15807295 18 17 14
-10.69058228 0.64354700 2.14596391 15 15 15
-10.68483734 0.64353597 2.14596105 14 16 15
-10.67909336 0.64352602 2.14595699 17 16 12
-10.67282772 0.64265001 2.14295697 15 16 12
-10.66709042 0.64263999 2.14295411 17 16 14
-10.66135216 0.64262903 2.14295006 16 16 14
-10.65527916 0.64204198 2.14094901 15 16 12
-10.64954472 0.64203203 2.14094496 15 15 13
-10.64332199 0.64115500 2.13794589 15 15 13
-10.63759422 0.64114499 2.13794208 16 15 14
-10.63154888 0.64055699 2.13594103 16 16 15
-10.62582493 0.64054698 2.13593698 15 16 13
-10.61963844 0.63967103 2.13293791 16 16 15
-10.61392117 0.63966101 2.13293409 16 15 14
-10.60790157 0.63907301 2.13093305 16 17 13
-10.60189247 0.63848603 2.12893200 16 16 15
-10.59618378 0.63847601 2.12892795 17 17 16
-10.59004211 0.63759899 2.12592912 17 17 16
-10.58434010 0.63758898 2.12592506 16 16 16
-10.57835674 0.63700199 2.12392402 16 16 15
-10.57196903 0.63554800 2.11892796 16 16 16
-10.56587410 0.63467199 2.11592793 18 18 18
-10.55992508 0.63408500 2.11392689 16 17 17
-10.55398369 0.63349700 2.11192703 18 18 18
-10.54831123 0.63348699 2.11192298 15 17 17
-10.54200077 0.63203400 2.10692596 17 17 17
-10.53633785 0.63202399 2.10692310 16 17 16
-10.53042889 0.63143599 2.10492206 17 18 15
-10.52440739 0.63055998 2.10192204 18 18 17
-10.51851654 0.62997299 2.09992194 18 18 18
-10.51251793 0.62909698 2.09692192 16 18 18
-10.50641727 0.62793201 2.09292412 17 17 17
-10.49999428 0.62590098 2.08593106 17 17 17
-10.49404335 0.62502599 2.08293200 17 17 17
-10.48821354 0.62443799 2.08093095 17 17 17
-10.48239326 0.62385100 2.07892990 19 17 14
-10.47679043 0.62384099 2.07892609 18 17 13
-10.47087860 0.62296498 2.07592702 20 17 14
-10.46508121 0.62237799 2.07392597 20 19 15
-10.45899677 0.62092501 2.06892991 17 17 16
-10.45322323 0.62033802 2.06692910 17 17 16
-10.44745636 0.61975098 2.06492901 17 17 16
-10.44123936 0.61772001 2.05793500 18 17 16
-11.03481007 0.64408797 2.12619209 16 16 16
-11.02910805 0.64407802 2.12618804 16 17 14
-11.02431679 0.64494199 2.12917995 17 17 16
-11.01860809 0.64493197 2.12917590 17 17 16
-11.01349926 0.64550400 2.13117003 16 16 15
-11.00838184 0.64607602 2.13316393 16 17 17
-11.00266457 0.64606601 2.13316011 17 17 16
-10.99694824 0.64605498 2.13315606 17 17 16
-10.99210453 0.64691901 2.13614798 16 17 16
-10.98638058 0.64690799 2.13614392 17 17 16
-10.98065758 0.64689797 2.13614106 16 16 15
-10.97550488 0.64747000 2.13813400 17 17 17
-10.97062588 0.64833301 2.14112592 18 18 18
-10.96489239 0.64832300 2.14112210 18 18 18
-10.95915890 0.64831299 2.14111900 17 17 16
-10.95397758 0.64888501 2.14311194 18 16 16
-10.94824028 0.64887500 2.14310789 19 17 17
-10.94250202 0.64886498 2.14310503 17 16 16
-10.93676376 0.64885497 2.14310098 17 17 16
-10.93183136 0.64971799 2.14609289 17 17 16
-10.92661858 0.65028900 2.14808607 18 16 16
-10.92086983 0.65027899 2.14808202 17 17 16
-10.91590786 0.65114200 2.15107489 15 17 17
-10.91015339 0.65113199 2.15107107 17 17 17
-10.90491295 0.65170401 2.15306401 17 17 16
-10.89915371 0.65169400 2.15305996 18 18 17
-10.89339638 0.65168399 2.15305710 18 16 15
-10.88839054 0.65254599 2.15604901 17 17 15
-10.88312435 0.65311801 2.15804195 18 17 15
-10.87735462 0.65310800 2.15803790 16 16 15
-10.87330055 0.65513498 2.16502500 17 17 16
-10.78611088 0.65439898 2.16297007 15 16 15
-10.78033161 0.65438902 2.16296601 15 16 13
-10.69057178 0.64929098 2.14593410 16 16 15
-10.68482685 0.64928102 2.14593005 15 16 15
-10.67908287 0.64927000 2.14592600 15 16 13
-10.67281818 0.64838803 2.14292598 15 16 12
-10.66707993 0.64837700 2.14292312 16 16 15
-10.66100311 0.64778602 2.14092207 16 16 15
-10.65526867 0.64777499 2.14091802 17 16 12
-10.64953518 0.64776498 2.14091396 17 15 14
-10.64331245 0.64688301 2.13791490 16 16 15
-10.63758373 0.64687198 2.13791108 15 15 15
-10.63153934 0.64628100 2.13591003 16 16 15
-10.62581539 0.64627099 2.13590598 16 16 16
-10.61962700 0.64538801 2.13290691 14 16 16
-10.61390972 0.64537799 2.13290310 16 16 15
-10.60789204 0.64478600 2.13090205 14 16 13
-10.60188198 0.64419401 2.12890100 15 15 14
-10.59617424 0.64418399 2.12889791 16 16 15
-10.59003162 0.64330202 2.12589788 16 16 15
-10.58432961 0.64329100 2.12589407 16 17 13
-10.57792664 0.64182699 2.12089801 18 17 13
-10.57195854 0.64123601 2.11889696 16 16 16
-10.56586361 0.64035302 2.11589789 17 17 17
-10.55991459 0.63976198 2.11389709 14 16 16
-10.55397415 0.63916999 2.11189604 17 17 17
-10.54791164 0.63828701 2.10889697 17 17 17
-10.54199123 0.63769603 2.10689592 18 18 17
-10.53607655 0.63710397 2.10489511 17 18 17
-10.53004932 0.63622200 2.10189605 17 17 16
-10.52415466 0.63563001 2.09989500 16 18 15
-10.51815033 0.63474798 2.09689593 17 17 16
-10.51227379 0.63415599 2.09489489 16 18 17
-10.50606155 0.63269299 2.08989811 18 18 17
-10.49998379 0.63151997 2.08590102 18 17 16
-10.49403381 0.63063699 2.08290100 17 17 16
-10.48820400 0.63004601 2.08090091 16 16 15
-10.48238277 0.62945497 2.07890010 17 17 13
-10.47677994 0.62944502 2.07889605 19 18 14
-10.47066402 0.62798101 2.07389998 17 18 14
-10.46487141 0.62739003 2.07189894 19 18 15
-10.45898724 0.62650800 2.06890011 19 18 14
-10.45302105 0.62533498 2.06490207 18 18 17
-10.44716454 0.62445301 2.06190300 17 17 16
-11.01859760 0.65064001 2.12914610 16 18 14
-11.01288986 0.65063000 2.12914205 17 17 14
-11.00777626 0.65120602 2.13113499 16 16 15
-11.00265503 0.65178198 2.13312888 16 16 16
-10.99693775 0.65177202 2.13312507 17 17 16
-10.99209499 0.65264201 2.13611698 16 16 15
-10.98637104 0.65263200 2.13611388 17 17 16
-10.98064804 0.65262198 2.13611007 17 17 17
-10.97549534 0.65319800 2.13810301 18 18 18
-10.97061634 0.65406698 2.14109492 18 18 17
-10.96488190 0.65405703 2.14109206 18 17 17
-10.95914841 0.65404701 2.14108801 19 17 14
-10.95396805 0.65462297 2.14308095 16 16 16
-10.94822979 0.65461302 2.14307690 17 17 17
-10.94249153 0.65460300 2.14307404 17 17 17
-10.93756485 0.65547198 2.14606595 17 17 16
-10.93182087 0.65546203 2.14606190 17 17 17
-10.92660904 0.65603799 2.14805508 18 18 18
-10.92086029 0.65602797 2.14805198 17 17 16
-10.91589737 0.65689701 2.15104389 15 17 17
-10.91014290 0.65688699 2.15104008 16 16 16
-10.90490341 0.65746301 2.15303302 16 16 16
-10.89914417 0.65745300 2.15302896 17 17 16
-10.89414597 0.65832198 2.15602112 18 16 15
-10.88838100 0.65831202 2.15601802 16 16 16
-10.88311386 0.65888798 2.15801096 18 16 16
-10.87783909 0.65946400 2.16000390 17 16 16
-10.87280083 0.66033298 2.16299605 16 16 16
-10.78610134 0.66017902 2.16293907 15 16 12
-10.78032112 0.66016901 2.16293502 15 16 13
-10.69056129 0.65503502 2.14590311 17 16 14
-10.68481731 0.65502501 2.14589906 13 16 14
-10.67854500 0.65413600 2.14289904 16 16 14
-10.67280674 0.65412599 2.14289594 16 16 15
-10.66706944 0.65411502 2.14289188 16 16 13
-10.66099167 0.65351897 2.14089108 15 15 14
-10.65525913 0.65350902 2.14088702 17 16 15
-10.64952469 0.65349901 2.14088297 15 15 14
-10.64330101 0.65261000 2.13788390 15 15 14
-10.63757420 0.65259999 2.13788009 17 16 16
-10.63152790 0.65200400 2.13587904 16 16 16
-10.62580490 0.65199399 2.13587499 17 16 16
-10.61961746 0.65110499 2.13287592 16 16 16
-10.61390018 0.65109497 2.13287210 16 16 15
-10.60788155 0.65049899 2.13087106 16 16 14
-10.60187244 0.64990300 2.12887096 15 16 15
-10.59616375 0.64989299 2.12886691 15 16 15
-10.59002209 0.64900398 2.12586689 13 16 15
-10.58432007 0.64899403 2.12586403 14 16 15
-10.57791710 0.64751899 2.12086701 15 16 13
-10.57194901 0.64692301 2.11886597 15 15 14
-10.56585407 0.64603400 2.11586690 16 16 16
-10.55990505 0.64543903 2.11386609 16 16 16
-10.55396366 0.64484298 2.11186504 16 16 16
-10.54764271 0.64336801 2.10686898 17 17 17
-10.54198074 0.64335799 2.10686493 17 17 16
-10.53606701 0.64276201 2.10486507 16 16 15
-10.53003883 0.64187402 2.10186505 17 17 16
-10.52414513 0.64127803 2.09986496 18 18 15
-10.51790142 0.63980401 2.09486794 15 17 16
-10.51202965 0.63920802 2.09286690 15 17 16
-10.50582218 0.63773400 2.08787107 17 18 14
-10.49997425 0.63713801 2.08587003 17 17 13
-10.49402428 0.63624901 2.08287096 16 16 15
-10.48819447 0.63565397 2.08086991 16 16 16
-10.48237324 0.63505799 2.07887006 16 16 16
-10.47677040 0.63504797 2.07886600 17 17 16
-10.47065353 0.63357401 2.07386994 17 18 15
-10.46486092 0.63297802 2.07186890 17 18 15
-10.45878124 0.63150400 2.06687307 16 16 15
-10.45301056 0.63090903 2.06487203 17 17 16
-11.00264359 0.65749902 2.13309789 17 17 17
-10.99692822 0.65748900 2.13309407 17 17 17
-10.99208355 0.65836501 2.13608599 17 17 17
-10.98636055 0.65835500 2.13608289 17 17 17
-10.98121166 0.65893501 2.13807607 17 17 17
-10.97548485 0.65892500 2.13807201 17 17 18
-10.97060585 0.65980101 2.14106393 17 17 17
-10.96487236 0.65979099 2.14106107 17 17 16
-10.95913792 0.65978003 2.14105701 18 16 15
-10.95395756 0.66036099 2.14304996 17 16 16
-10.94822025 0.66035098 2.14304709 17 16 15
-10.94248199 0.66034102 2.14304304 17 17 16
-10.93755531 0.66121602 2.14603496 17 17 16
-10.93181133 0.66120601 2.14603090 18 17 17
-10.92659760 0.66178602 2.14802408 16 17 17
-10.92084980 0.66177601 2.14802098 17 17 16
-10.91588688 0.66265202 2.15101290 17 17 16
-10.91065216 0.66323203 2.15300608 16 16 15
-10.90489292 0.66322201 2.15300202 16 16 15
