-10.12286663 -0.17742699 -0.41303200 221 218 243
-10.09321594 -0.18280800 -0.38302201 254 252 255
-10.09278965 -0.18280800 -0.38302201 255 253 255
-10.09236336 -0.18280900 -0.38302299 255 254 255
-10.09193707 -0.18280999 -0.38302299 255 254 255
-10.09151077 -0.18281101 -0.38302299 255 254 255
-10.09108543 -0.18281101 -0.38302299 255 254 255
-10.09065914 -0.18281201 -0.38302401 255 254 255
-10.09023190 -0.18281300 -0.38302401 255 254 255
-10.08980560 -0.18281400 -0.38302401 255 254 255
-10.08938026 -0.18281400 -0.38302499 255 254 255
-10.08841705 -0.18299399 -0.38202399 255 255 255
-10.08798790 -0.18299399 -0.38202500 255 255 255
-10.08755970 -0.18299501 -0.38202500 255 255 255
-10.08713245 -0.18299600 -0.38202500 255 255 255
-10.08670330 -0.18299700 -0.38202500 255 255 255
-10.08627510 -0.18299800 -0.38202599 255 255 255
-10.14478493 -0.17316300 -0.43504000 255 255 255
-10.14446831 -0.17316400 -0.43504000 255 255 255
-10.14415073 -0.17316400 -0.43504101 255 255 255
-10.14383411 -0.17316499 -0.43504101 255 255 255
-10.14351559 -0.17316499 -0.43504101 255 255 255
-10.14319897 -0.17316601 -0.43504101 255 255 255
-10.14361191 -0.17281400 -0.43704301 255 255 255
-10.14330006 -0.17281500 -0.43704301 255 255 255
-10.14298725 -0.17281500 -0.43704301 255 255 255
-10.14267445 -0.17281599 -0.43704399 255 255 255
-10.14236069 -0.17281599 -0.43704399 255 255 255
-10.14204788 -0.17281701 -0.43704399 255 255 255
-10.14173603 -0.17281701 -0.43704399 255 255 255
-10.14218235 -0.17246599 -0.43904600 255 255 255
-10.14187336 -0.17246599 -0.43904600 255 255 255
-10.14156532 -0.17246699 -0.43904600 255 255 255
-10.14125633 -0.17246699 -0.43904600 255 255 255
-10.14094830 -0.17246801 -0.43904701 255 255 255
-10.12809467 -0.17652699 -0.41603300 220 219 234
-10.12773800 -0.17652801 -0.41603300 219 218 235
-10.12613487 -0.17705800 -0.41303101 217 216 234
-10.12577248 -0.17705800 -0.41303200 215 213 234
-10.12540817 -0.17705899 -0.41303200 218 216 237
-10.12504482 -0.17705899 -0.41303200 217 215 239
-10.12468243 -0.17705999 -0.41303200 217 214 240
-10.12431908 -0.17706101 -0.41303301 217 214 242
-10.12395573 -0.17706101 -0.41303301 219 216 245
-10.12359238 -0.17706200 -0.41303301 220 217 247
-10.09321499 -0.18238100 -0.38302401 254 252 255
-10.09278870 -0.18238200 -0.38302499 254 252 255
-10.09236336 -0.18238300 -0.38302499 255 254 255
-10.09193611 -0.18238400 -0.38302499 255 254 255
-10.09150982 -0.18238400 -0.38302600 255 254 255
-10.09108353 -0.18238500 -0.38302600 255 254 255
-10.09065819 -0.18238600 -0.38302600 255 254 255
-10.09023190 -0.18238699 -0.38302600 255 254 255
-10.08980465 -0.18238699 -0.38302699 255 254 255
-10.08937931 -0.18238799 -0.38302699 255 254 255
-10.08841610 -0.18256500 -0.38202700 255 255 255
-10.08798790 -0.18256600 -0.38202700 255 255 255
-10.08755875 -0.18256700 -0.38202700 255 255 255
-10.08713055 -0.18256800 -0.38202700 255 255 255
-10.08670330 -0.18256800 -0.38202801 255 255 255
-10.08627415 -0.18256900 -0.38202801 255 255 255
-10.14478397 -0.17284600 -0.43504199 255 255 255
-10.14446735 -0.17284700 -0.43504199 255 255 255
-10.14414978 -0.17284700 -0.43504199 255 255 255
-10.14383316 -0.17284800 -0.43504301 255 255 255
-10.14351559 -0.17284800 -0.43504301 255 255 255
-10.14319897 -0.17284900 -0.43504301 255 255 255
-10.14361191 -0.17250100 -0.43704501 255 255 255
-10.14329910 -0.17250200 -0.43704501 255 255 255
-10.14298630 -0.17250200 -0.43704501 255 255 252
-10.14267254 -0.17250299 -0.43704501 255 255 252
-10.14236069 -0.17250299 -0.43704501 255 255 252
-10.14204788 -0.17250399 -0.43704599 255 255 252
-10.14173508 -0.17250501 -0.43704599 255 255 253
-10.14142227 -0.17250501 -0.43704599 255 255 253
-10.14187336 -0.17215700 -0.43904799 255 255 255
-10.14156437 -0.17215800 -0.43904799 255 255 255
-10.14125633 -0.17215900 -0.43904799 255 255 255
-10.14094734 -0.17215900 -0.43904799 255 255 255
-10.12809372 -0.17617100 -0.41603500 216 217 235
-10.12773705 -0.17617100 -0.41603500 215 216 237
-10.12613392 -0.17669401 -0.41303301 215 215 237
-10.12577057 -0.17669500 -0.41303399 215 214 239
-10.12540817 -0.17669600 -0.41303399 221 219 246
-10.12504482 -0.17669600 -0.41303399 217 214 242
-10.12468147 -0.17669700 -0.41303399 217 213 239
-10.12431812 -0.17669800 -0.41303501 221 217 243
-10.12395477 -0.17669800 -0.41303501 222 218 242
-10.12359238 -0.17669900 -0.41303501 222 217 242
-10.09321404 -0.18195499 -0.38302699 254 254 255
-10.09278774 -0.18195599 -0.38302699 255 254 255
-10.09236240 -0.18195701 -0.38302699 255 255 255
-10.09193611 -0.18195701 -0.38302800 255 255 255
-10.09150982 -0.18195800 -0.38302800 255 255 255
-10.09108257 -0.18195900 -0.38302800 255 255 255
-10.09065723 -0.18196000 -0.38302800 255 255 255
-10.09023094 -0.18196100 -0.38302901 255 255 255
-10.08980465 -0.18196100 -0.38302901 255 255 255
-10.08937931 -0.18196200 -0.38302901 255 255 255
-10.08841515 -0.18213700 -0.38202900 255 255 255
-10.08798695 -0.18213800 -0.38202900 255 255 255
-10.08755875 -0.18213899 -0.38202900 255 255 255
-10.08712959 -0.18213899 -0.38203001 255 255 255
-10.08670235 -0.18213999 -0.38203001 255 255 255
-10.08627415 -0.18214101 -0.38203001 255 255 255
-10.14478302 -0.17252900 -0.43504399 255 255 255
-10.14446640 -0.17253000 -0.43504399 255 255 255
-10.14414883 -0.17253000 -0.43504399 255 255 255
-10.14383221 -0.17253099 -0.43504399 255 255 255
-10.14351463 -0.17253099 -0.43504399 255 255 255
-10.14319801 -0.17253201 -0.43504500 255 255 255
-10.14361095 -0.17218800 -0.43704599 255 255 255
-10.14329910 -0.17218900 -0.43704599 255 255 255
-10.14298630 -0.17219000 -0.43704700 255 255 251
-10.14267254 -0.17219000 -0.43704700 255 255 251
-10.14235973 -0.17219099 -0.43704700 255 255 251
-10.14204693 -0.17219099 -0.43704700 255 255 251
-10.14173412 -0.17219201 -0.43704799 255 255 253
-10.14142227 -0.17219201 -0.43704799 255 255 253
-10.14110947 -0.17219301 -0.43704799 255 255 255
-10.14156437 -0.17184900 -0.43904999 255 255 255
-10.14125538 -0.17185000 -0.43904999 254 254 254
-10.14094734 -0.17185000 -0.43904999 255 255 255
-10.12962246 -0.17546800 -0.41803801 220 223 238
-10.12926865 -0.17546900 -0.41803801 216 219 238
-10.12809372 -0.17581400 -0.41603699 214 217 236
-10.12773705 -0.17581400 -0.41603699 214 216 239
-10.12738037 -0.17581500 -0.41603699 215 215 239
-10.12702274 -0.17581600 -0.41603801 215 215 241
-10.12540722 -0.17633200 -0.41303599 221 218 245
-10.12504387 -0.17633300 -0.41303599 216 213 240
-10.12468147 -0.17633399 -0.41303599 218 214 239
-10.12431812 -0.17633399 -0.41303700 224 220 243
-10.12395382 -0.17633501 -0.41303700 227 222 244
-10.12359142 -0.17633601 -0.41303700 226 221 242
-10.09236145 -0.18153100 -0.38303000 255 255 255
-10.09193516 -0.18153100 -0.38303000 255 255 255
-10.09150887 -0.18153200 -0.38303000 255 255 255
-10.09108257 -0.18153299 -0.38303000 255 255 255
-10.09065628 -0.18153401 -0.38303101 255 255 255
-10.09022999 -0.18153401 -0.38303101 255 255 255
-10.08980370 -0.18153501 -0.38303101 255 255 255
-10.08884335 -0.18170799 -0.38203099 255 255 255
-10.08841419 -0.18170901 -0.38203099 255 255 255
-10.08798599 -0.18171000 -0.38203099 255 255 255
-10.08755779 -0.18171000 -0.38203201 255 255 255
-10.08712864 -0.18171100 -0.38203201 255 255 255
-10.08670139 -0.18171200 -0.38203201 255 255 255
-10.08627319 -0.18171300 -0.38203299 255 255 255
-10.14478302 -0.17221200 -0.43504500 255 255 255
-10.14446640 -0.17221300 -0.43504599 255 255 255
-10.14414883 -0.17221300 -0.43504599 255 255 255
-10.14383221 -0.17221400 -0.43504599 255 255 255
-10.14351463 -0.17221400 -0.43504599 255 255 255
-10.14319801 -0.17221500 -0.43504599 255 255 255
-10.14361095 -0.17187600 -0.43704799 255 255 255
-10.14329815 -0.17187600 -0.43704799 255 255 255
-10.14298534 -0.17187700 -0.43704799 255 255 251
-10.14267159 -0.17187700 -0.43704900 255 255 251
-10.14235973 -0.17187800 -0.43704900 255 255 251
-10.14204693 -0.17187800 -0.43704900 255 255 251
-10.14173412 -0.17187899 -0.43704900 255 255 253
-10.14142132 -0.17187899 -0.43704900 255 255 253
-10.14110756 -0.17188001 -0.43705001 255 255 255
-10.14079475 -0.17188101 -0.43705001 255 255 255
-10.14125538 -0.17154101 -0.43905100 253 253 253
-10.14094639 -0.17154200 -0.43905199 255 255 255
-10.12962055 -0.17511600 -0.41804001 219 222 237
-10.12926769 -0.17511600 -0.41804001 216 219 238
-10.12891483 -0.17511700 -0.41804001 214 217 236
-10.12773609 -0.17545700 -0.41603899 214 216 239
-10.12737942 -0.17545800 -0.41603899 216 216 240
-10.12702179 -0.17545900 -0.41603899 216 216 242
-10.12666512 -0.17545900 -0.41604000 217 215 239
-10.12504292 -0.17597000 -0.41303799 216 214 238
-10.12467957 -0.17597000 -0.41303799 221 217 240
-10.12431717 -0.17597100 -0.41303900 227 224 245
-10.12395382 -0.17597200 -0.41303900 232 228 247
-10.12359047 -0.17597200 -0.41303900 235 231 247
-10.09235954 -0.18110400 -0.38303199 255 255 255
-10.09193420 -0.18110500 -0.38303199 255 255 255
-10.09150791 -0.18110600 -0.38303199 255 255 255
-10.09108162 -0.18110700 -0.38303301 255 255 255
-10.09065628 -0.18110700 -0.38303301 255 255 255
-10.09022903 -0.18110800 -0.38303301 255 255 255
-10.08926964 -0.18127900 -0.38203299 255 255 255
-10.08884239 -0.18128000 -0.38203299 255 255 255
-10.08841419 -0.18128100 -0.38203400 255 255 255
-10.08798504 -0.18128100 -0.38203400 255 255 255
-10.08755684 -0.18128200 -0.38203400 255 255 255
-10.08712864 -0.18128300 -0.38203400 255 255 255
-10.08670044 -0.18128400 -0.38203499 255 255 255
-10.08627224 -0.18128400 -0.38203499 255 255 255
-10.14414787 -0.17189600 -0.43504700 255 255 255
-10.14383125 -0.17189699 -0.43504801 255 255 255
-10.14351368 -0.17189699 -0.43504801 255 255 255
-10.14319706 -0.17189801 -0.43504801 255 255 255
-10.14288044 -0.17189801 -0.43504801 255 255 255
-10.14329720 -0.17156300 -0.43705001 255 255 255
-10.14298534 -0.17156400 -0.43705001 255 255 251
-10.14267159 -0.17156400 -0.43705001 255 255 251
-10.14235878 -0.17156500 -0.43705001 255 255 251
-10.14204597 -0.17156599 -0.43705100 255 255 251
-10.14173317 -0.17156599 -0.43705100 255 255 253
-10.14142036 -0.17156699 -0.43705100 255 255 253
-10.14110756 -0.17156699 -0.43705100 255 255 255
-10.14079475 -0.17156801 -0.43705201 255 255 255
-10.14125443 -0.17123300 -0.43905300 252 252 252
-10.14094543 -0.17123300 -0.43905300 254 254 254
-10.12961960 -0.17476299 -0.41804200 218 221 238
-10.12926769 -0.17476401 -0.41804200 216 219 238
-10.12891483 -0.17476401 -0.41804200 215 218 237
-10.12773609 -0.17510000 -0.41604099 215 217 238
-10.12737942 -0.17510100 -0.41604099 217 217 240
-10.12702179 -0.17510200 -0.41604099 218 218 242
-10.12666512 -0.17510200 -0.41604200 215 213 235
-10.12630844 -0.17510299 -0.41604200 219 218 238
-10.12467861 -0.17560700 -0.41304001 227 224 242
-10.12431622 -0.17560799 -0.41304001 233 230 246
-10.09269619 -0.18084501 -0.38203299 255 255 255
-10.09226799 -0.18084501 -0.38203299 255 255 255
-10.09183884 -0.18084601 -0.38203400 255 255 255
-10.09193325 -0.18067899 -0.38303399 255 255 255
-10.09150696 -0.18068001 -0.38303500 255 255 255
-10.09108067 -0.18068001 -0.38303500 255 255 255
-10.09012604 -0.18084900 -0.38203499 255 255 255
-10.08969784 -0.18085000 -0.38203499 255 255 255
-10.08926868 -0.18085100 -0.38203499 255 255 255
-10.08884144 -0.18085200 -0.38203600 255 255 255
-10.08841324 -0.18085200 -0.38203600 255 255 255
-10.08798504 -0.18085299 -0.38203600 255 255 255
-10.08755589 -0.18085399 -0.38203600 255 255 255
-10.08712769 -0.18085501 -0.38203701 255 255 255
-10.08670044 -0.18085501 -0.38203701 255 255 255
-10.08627129 -0.18085600 -0.38203701 255 255 255
-10.14414787 -0.17157900 -0.43504900 255 255 255
-10.14383125 -0.17158000 -0.43504900 255 255 255
-10.14351368 -0.17158000 -0.43505001 255 255 255
-10.14319706 -0.17158100 -0.43505001 255 255 255
-10.14288044 -0.17158100 -0.43505001 255 255 255
-10.14329720 -0.17125000 -0.43705201 255 255 255
-10.14298439 -0.17125100 -0.43705201 255 255 251
-10.14267063 -0.17125200 -0.43705201 255 255 251
-10.14235783 -0.17125200 -0.43705201 255 255 251
-10.14204597 -0.17125300 -0.43705201 255 255 251
-10.14173317 -0.17125300 -0.43705299 255 255 253
-10.14142036 -0.17125399 -0.43705299 255 255 253
-10.14110661 -0.17125399 -0.43705299 255 255 255
-10.14079380 -0.17125501 -0.43705299 255 255 255
-10.14048100 -0.17125501 -0.43705299 254 254 254
-10.14094543 -0.17092501 -0.43905500 253 253 253
-10.12961960 -0.17441000 -0.41804299 218 221 238
-10.12926674 -0.17441100 -0.41804400 216 219 238
-10.12891388 -0.17441100 -0.41804400 215 218 237
-10.12856197 -0.17441200 -0.41804400 216 218 239
-10.12737846 -0.17474400 -0.41604301 219 220 241
-10.12702084 -0.17474499 -0.41604301 220 221 242
-10.12666416 -0.17474499 -0.41604400 218 217 236
-10.12630653 -0.17474601 -0.41604400 227 226 243
-10.12467861 -0.17524400 -0.41304201 235 233 248
-10.12431622 -0.17524500 -0.41304201 240 238 250
-10.09269524 -0.18041600 -0.38203499 255 255 255
-10.09226704 -0.18041700 -0.38203600 255 255 255
-10.09183884 -0.18041800 -0.38203600 255 255 255
-10.09140968 -0.18041900 -0.38203600 255 255 255
-10.09098244 -0.18041900 -0.38203600 255 255 255
-10.09055424 -0.18042000 -0.38203701 255 255 255
-10.09012508 -0.18042099 -0.38203701 255 255 255
-10.08969688 -0.18042199 -0.38203701 255 255 255
-10.08926868 -0.18042199 -0.38203800 255 255 255
-10.08883953 -0.18042301 -0.38203800 255 255 255
-10.08841228 -0.18042400 -0.38203800 255 255 255
-10.08798409 -0.18042500 -0.38203800 255 255 255
-10.08755589 -0.18042500 -0.38203901 255 255 255
-10.08712673 -0.18042600 -0.38203901 255 255 255
-10.08669853 -0.18042700 -0.38203901 255 255 255
-10.08627129 -0.18042800 -0.38203999 255 255 255
-10.14414692 -0.17126200 -0.43505099 255 255 255
-10.14383030 -0.17126299 -0.43505099 255 255 255
-10.14351273 -0.17126299 -0.43505099 255 255 255
-10.14319611 -0.17126399 -0.43505201 255 255 255
-10.14287853 -0.17126399 -0.43505201 255 255 255
-10.14329624 -0.17093800 -0.43705299 255 255 255
-10.14298439 -0.17093800 -0.43705299 255 255 251
-10.14267063 -0.17093900 -0.43705401 255 255 251
-10.14235783 -0.17093900 -0.43705401 255 255 251
-10.14204502 -0.17094000 -0.43705401 255 255 251
-10.14173222 -0.17094000 -0.43705401 255 255 253
-10.14141941 -0.17094100 -0.43705401 255 255 253
-10.14110661 -0.17094199 -0.43705499 255 255 255
-10.14079380 -0.17094199 -0.43705499 255 255 255
-10.14048100 -0.17094301 -0.43705499 255 255 255
-10.14016819 -0.17094301 -0.43705499 253 253 253
-10.12666321 -0.17438900 -0.41604501 223 222 239
-10.12630653 -0.17438900 -0.41604599 234 233 248
-10.12594986 -0.17439000 -0.41604599 244 242 254
-10.12431526 -0.17488100 -0.41304401 245 244 252
-10.12395191 -0.17488199 -0.41304499 250 248 252
-10.12272835 -0.17521000 -0.41104400 255 254 255
-10.09269428 -0.17998800 -0.38203800 255 255 255
-10.09226608 -0.17998900 -0.38203800 255 255 255
-10.09183788 -0.17998999 -0.38203800 255 255 255
-10.09140873 -0.17998999 -0.38203800 255 255 255
-10.09098053 -0.17999101 -0.38203901 255 255 255
-10.09055328 -0.17999201 -0.38203901 255 255 255
-10.09012508 -0.17999300 -0.38203901 255 255 255
-10.08969593 -0.17999300 -0.38203999 255 255 255
-10.08926773 -0.17999400 -0.38203999 255 255 255
-10.08883953 -0.17999500 -0.38203999 255 255 255
-10.08841133 -0.17999600 -0.38203999 255 255 255
-10.08798313 -0.17999600 -0.38204101 255 255 255
-10.08755493 -0.17999700 -0.38204101 255 255 255
-10.08712578 -0.17999800 -0.38204101 255 255 255
-10.08669758 -0.17999899 -0.38204199 255 255 255
-10.08627033 -0.17999899 -0.38204199 255 255 255
-10.14414692 -0.17094500 -0.43505299 255 255 255
-10.14383030 -0.17094600 -0.43505299 255 255 255
-10.14351273 -0.17094600 -0.43505299 255 255 255
-10.14319611 -0.17094700 -0.43505299 255 255 255
-10.14287853 -0.17094700 -0.43505299 255 255 255
-10.14329624 -0.17062500 -0.43705499 255 255 255
-10.14298344 -0.17062500 -0.43705499 255 255 251
-10.14266968 -0.17062600 -0.43705499 255 255 251
-10.14235687 -0.17062700 -0.43705601 255 255 251
-10.14204407 -0.17062700 -0.43705601 255 255 251
-10.14173222 -0.17062800 -0.43705601 255 255 253
-10.14141941 -0.17062800 -0.43705601 255 255 253
-10.14110565 -0.17062899 -0.43705601 255 255 255
-10.14079285 -0.17062899 -0.43705699 255 255 255
-10.14048004 -0.17062999 -0.43705699 255 255 255
-10.14016819 -0.17062999 -0.43705699 254 254 254
-10.12750244 -0.17370801 -0.41804901 228 227 243
-10.12630558 -0.17403200 -0.41604799 240 239 253
-10.12467766 -0.17451800 -0.41304600 249 247 255
-10.12346172 -0.17484100 -0.41104501 249 249 254
-10.12309456 -0.17484200 -0.41104501 253 251 254
-10.12272835 -0.17484300 -0.41104600 255 255 253
-10.09269428 -0.17956001 -0.38203999 255 255 255
-10.09226513 -0.17956100 -0.38203999 255 255 255
-10.09183693 -0.17956100 -0.38203999 255 255 255
-10.09140873 -0.17956200 -0.38204101 255 255 255
-10.09097958 -0.17956300 -0.38204101 255 255 255
-10.09055233 -0.17956400 -0.38204101 255 255 255
-10.09012413 -0.17956400 -0.38204199 255 255 255
-10.08969593 -0.17956500 -0.38204199 255 255 255
-10.08926678 -0.17956600 -0.38204199 255 255 255
-10.08883858 -0.17956699 -0.38204199 255 255 255
-10.08841133 -0.17956699 -0.38204300 255 255 255
-10.08798218 -0.17956799 -0.38204300 255 255 255
-10.08755398 -0.17956901 -0.38204300 255 255 255
-10.08712578 -0.17957000 -0.38204399 255 255 255
-10.08669662 -0.17957000 -0.38204399 255 255 255
-10.08626938 -0.17957100 -0.38204399 255 255 255
-10.14307594 -0.17110600 -0.43205199 255 255 255
-10.14275265 -0.17110699 -0.43205300 255 255 255
-10.14242935 -0.17110699 -0.43205300 255 255 255
-10.14210606 -0.17110801 -0.43205300 255 255 255
-10.14287758 -0.17062999 -0.43505499 255 255 255
-10.14329529 -0.17031200 -0.43705699 255 255 255
-10.14298153 -0.17031300 -0.43705699 255 254 255
-10.14266968 -0.17031300 -0.43705699 255 254 255
-10.14235687 -0.17031400 -0.43705699 255 254 255
-10.14204407 -0.17031400 -0.43705699 255 254 255
-10.14173126 -0.17031500 -0.43705800 255 255 253
-10.14141846 -0.17031500 -0.43705800 255 255 253
-10.14110470 -0.17031600 -0.43705800 254 255 251
-10.14079285 -0.17031600 -0.43705800 254 255 251
-10.14048004 -0.17031699 -0.43705800 249 254 250
-10.14016724 -0.17031799 -0.43705899 252 255 255
-10.13985443 -0.17031799 -0.43705899 251 255 255
-10.13954067 -0.17031901 -0.43705899 249 254 255
-10.12666225 -0.17367500 -0.41604900 244 240 255
-10.12630463 -0.17367500 -0.41604999 247 244 255
-10.12382889 -0.17447300 -0.41104701 252 250 255
-10.12346172 -0.17447400 -0.41104701 255 253 255
-10.12309361 -0.17447500 -0.41104701 255 255 255
-10.12272739 -0.17447500 -0.41104800 255 255 253
-10.09269333 -0.17913200 -0.38204199 255 252 255
-10.09226513 -0.17913200 -0.38204199 255 252 255
-10.09183598 -0.17913300 -0.38204300 255 254 255
-10.09140778 -0.17913400 -0.38204300 255 254 255
-10.09097958 -0.17913499 -0.38204300 255 255 255
-10.09055138 -0.17913499 -0.38204399 255 255 255
-10.09012318 -0.17913599 -0.38204399 254 255 253
-10.08969498 -0.17913701 -0.38204399 254 255 253
-10.08926582 -0.17913800 -0.38204399 254 255 253
-10.08883762 -0.17913800 -0.38204500 254 255 253
-10.08841038 -0.17913900 -0.38204500 255 255 255
-10.08798218 -0.17914000 -0.38204500 255 255 255
-10.08755302 -0.17914100 -0.38204601 255 255 255
-10.08712482 -0.17914100 -0.38204601 255 255 255
-10.08669662 -0.17914200 -0.38204601 255 255 255
-10.08626842 -0.17914300 -0.38204601 255 255 255
-10.14307594 -0.17078300 -0.43205401 255 255 255
-10.14275169 -0.17078300 -0.43205401 255 255 255
-10.14242935 -0.17078400 -0.43205500 255 255 255
-10.14210606 -0.17078400 -0.43205500 255 255 255
-10.14287663 -0.17031300 -0.43505701 255 255 255
-10.14329529 -0.16999900 -0.43705800 255 255 255
-10.14298153 -0.17000000 -0.43705800 255 254 255
-10.14266872 -0.17000000 -0.43705899 255 254 255
-10.14235592 -0.17000100 -0.43705899 255 254 255
-10.14204311 -0.17000100 -0.43705899 255 254 255
-10.14173126 -0.17000200 -0.43705899 255 255 253
-10.14141846 -0.17000300 -0.43706000 255 255 253
-10.14110470 -0.17000300 -0.43706000 254 255 251
-10.14079189 -0.17000400 -0.43706000 254 255 251
-10.14047909 -0.17000400 -0.43706000 251 255 252
-10.14016628 -0.17000499 -0.43706000 252 255 255
-10.13985443 -0.17000499 -0.43706101 251 255 255
-10.13954067 -0.17000601 -0.43706101 246 251 254
-10.12666225 -0.17331800 -0.41605100 248 245 255
-10.12630463 -0.17331800 -0.41605100 250 247 255
-10.12382889 -0.17410600 -0.41104901 253 251 255
-10.12260914 -0.17442100 -0.40904799 255 254 255
-10.12223816 -0.17442200 -0.40904799 255 255 255
-10.12186623 -0.17442299 -0.40904799 255 255 253
-10.09269238 -0.17870300 -0.38204500 255 252 255
-10.09226418 -0.17870399 -0.38204500 255 252 255
-10.09183502 -0.17870501 -0.38204500 255 254 255
-10.09140682 -0.17870501 -0.38204500 255 254 255
-10.09097862 -0.17870601 -0.38204601 255 255 255
-10.09055138 -0.17870700 -0.38204601 255 255 255
-10.09012222 -0.17870800 -0.38204601 254 255 253
-10.08969402 -0.17870900 -0.38204700 254 255 253
-10.08926582 -0.17870900 -0.38204700 254 255 253
-10.08883667 -0.17871000 -0.38204700 254 255 253
-10.08840942 -0.17871100 -0.38204700 255 255 255
-10.08798122 -0.17871200 -0.38204801 255 255 255
-10.08755207 -0.17871200 -0.38204801 255 255 255
-10.08712387 -0.17871299 -0.38204801 255 255 255
-10.08669567 -0.17871401 -0.38204801 255 255 255
-10.08626842 -0.17871501 -0.38204899 255 255 255
-10.14307499 -0.17045900 -0.43205601 255 255 255
-10.14275169 -0.17046000 -0.43205601 255 255 255
-10.14242840 -0.17046100 -0.43205601 255 255 255
-10.14210510 -0.17046100 -0.43205699 255 255 255
-10.14287663 -0.16999599 -0.43505901 255 255 255
-10.14329433 -0.16968600 -0.43706000 255 255 255
-10.14298058 -0.16968700 -0.43706000 255 254 255
-10.14266777 -0.16968700 -0.43706000 255 254 255
-10.14235592 -0.16968800 -0.43706101 255 254 255
-10.14204311 -0.16968900 -0.43706101 255 254 255
-10.14173031 -0.16968900 -0.43706101 255 255 253
-10.14141655 -0.16969000 -0.43706101 255 255 253
-10.14110374 -0.16969000 -0.43706101 254 255 251
-10.14079189 -0.16969100 -0.43706200 254 255 251
-10.14047909 -0.16969100 -0.43706200 252 255 253
-10.14016628 -0.16969199 -0.43706200 252 255 255
-10.12456322 -0.17373700 -0.41104999 252 250 255
-10.12419510 -0.17373800 -0.41105101 253 252 255
-10.12382793 -0.17373900 -0.41105101 255 253 255
-10.12260914 -0.17405000 -0.40904999 255 255 255
-10.12223721 -0.17405000 -0.40904999 255 255 255
-10.12186527 -0.17405100 -0.40904999 255 255 253
-10.09354782 -0.17827301 -0.38204601 255 249 255
-10.09311962 -0.17827401 -0.38204700 255 250 255
-10.09269142 -0.17827500 -0.38204700 255 252 255
-10.09226322 -0.17827600 -0.38204700 255 252 255
-10.09183502 -0.17827600 -0.38204700 255 254 255
-10.09140587 -0.17827700 -0.38204801 255 254 255
-10.09097767 -0.17827800 -0.38204801 255 255 255
-10.09055042 -0.17827900 -0.38204801 255 255 255
-10.09012222 -0.17827900 -0.38204899 254 255 253
-10.08969307 -0.17828000 -0.38204899 254 255 253
-10.08926487 -0.17828099 -0.38204899 254 255 253
-10.08883667 -0.17828199 -0.38204899 254 255 253
-10.08840847 -0.17828199 -0.38205001 255 255 255
-10.08798027 -0.17828301 -0.38205001 255 255 255
-10.08755207 -0.17828400 -0.38205001 255 255 255
-10.08712292 -0.17828500 -0.38205099 255 255 255
-10.08669472 -0.17828600 -0.38205099 255 255 255
-10.08626747 -0.17828600 -0.38205099 255 255 255
-10.14164829 -0.17074800 -0.42805499 255 255 255
-10.14131641 -0.17074899 -0.42805499 255 255 255
-10.14098358 -0.17074899 -0.42805600 255 255 255
-10.14137936 -0.17044400 -0.43005699 255 255 255
-10.14287567 -0.16967900 -0.43505999 255 255 255
-10.14329433 -0.16937400 -0.43706200 255 255 255
-10.14298058 -0.16937400 -0.43706200 255 254 255
-10.14266777 -0.16937500 -0.43706200 255 254 255
-10.14235497 -0.16937500 -0.43706200 255 254 255
-10.14204216 -0.16937600 -0.43706200 255 254 255
-10.14172935 -0.16937600 -0.43706301 255 255 253
-10.14141655 -0.16937700 -0.43706301 255 255 253
-10.14110374 -0.16937700 -0.43706301 254 255 251
-10.14079094 -0.16937800 -0.43706301 254 255 251
-10.14047813 -0.16937900 -0.43706399 252 255 253
-10.14016533 -0.16937900 -0.43706399 252 255 255
-10.12540054 -0.17306300 -0.41305301 255 253 255
-10.12419510 -0.17337000 -0.41105300 255 254 255
-10.12298012 -0.17367700 -0.40905201 255 255 255
-10.12260818 -0.17367800 -0.40905201 255 255 255
-10.12223625 -0.17367899 -0.40905201 255 255 253
-10.12186527 -0.17367899 -0.40905201 254 254 252
-10.09354687 -0.17784500 -0.38204899 255 249 255
-10.09311867 -0.17784600 -0.38204899 255 250 255
-10.09269142 -0.17784700 -0.38204899 255 252 255
-10.09226227 -0.17784700 -0.38204899 255 252 255
-10.09183407 -0.17784800 -0.38205001 255 254 255
-10.09140587 -0.17784899 -0.38205001 255 254 255
-10.09097672 -0.17784999 -0.38205001 255 255 255
-10.09054947 -0.17784999 -0.38205099 255 255 255
-10.09012127 -0.17785101 -0.38205099 254 255 253
-10.08969212 -0.17785200 -0.38205099 254 255 253
-10.08926392 -0.17785300 -0.38205099 254 255 253
-10.08883572 -0.17785300 -0.38205200 254 255 253
-10.08840847 -0.17785400 -0.38205200 255 255 255
-10.08797932 -0.17785500 -0.38205200 255 255 255
-10.08755112 -0.17785600 -0.38205299 255 255 255
-10.08712292 -0.17785600 -0.38205299 255 255 255
-10.08669376 -0.17785700 -0.38205299 255 255 255
-10.08626556 -0.17785800 -0.38205299 255 255 255
-10.14231110 -0.17041500 -0.42805699 255 255 255
-10.14197922 -0.17041600 -0.42805699 255 255 255
-10.14164734 -0.17041700 -0.42805699 255 255 255
-10.14131546 -0.17041700 -0.42805699 255 255 255
-10.14098358 -0.17041799 -0.42805699 255 255 255
-10.14065170 -0.17041799 -0.42805800 255 255 255
-10.14287567 -0.16936199 -0.43506199 255 255 255
-10.14329338 -0.16906101 -0.43706301 255 255 255
-10.14297962 -0.16906101 -0.43706399 255 254 255
-10.14266682 -0.16906200 -0.43706399 255 254 255
-10.14235497 -0.16906200 -0.43706399 255 254 255
-10.14204216 -0.16906300 -0.43706399 255 254 255
-10.14172935 -0.16906400 -0.43706399 255 255 253
-10.14141560 -0.16906400 -0.43706501 255 255 253
-10.14110279 -0.16906500 -0.43706501 254 255 251
-10.14078999 -0.16906500 -0.43706501 254 255 251
-10.14047813 -0.16906600 -0.43706501 252 255 253
-10.14016533 -0.16906600 -0.43706501 249 253 252
-10.12446499 -0.17330299 -0.40905300 248 247 255
-10.12492943 -0.17300200 -0.41105399 254 253 255
-10.12372208 -0.17330500 -0.40905300 255 255 255
-10.12335110 -0.17330500 -0.40905300 255 255 255
-10.12297916 -0.17330600 -0.40905401 255 255 253
-10.12260723 -0.17330700 -0.40905401 255 255 253
-10.12223625 -0.17330700 -0.40905401 255 255 253
-10.12186432 -0.17330800 -0.40905401 255 255 253
-10.09354591 -0.17741700 -0.38205099 255 249 255
-10.09311771 -0.17741799 -0.38205099 255 250 255
-10.09269047 -0.17741799 -0.38205099 255 252 255
-10.09226227 -0.17741901 -0.38205200 255 252 255
-10.09183311 -0.17742001 -0.38205200 255 254 255
-10.09140491 -0.17742100 -0.38205200 255 254 255
-10.09097672 -0.17742100 -0.38205299 255 255 255
-10.09054756 -0.17742200 -0.38205299 255 255 255
-10.09012032 -0.17742300 -0.38205299 254 255 253
-10.08969212 -0.17742400 -0.38205299 254 255 253
-10.08926296 -0.17742400 -0.38205400 254 255 253
-10.08883476 -0.17742500 -0.38205400 254 255 253
-10.08840656 -0.17742600 -0.38205400 255 255 255
-10.08797932 -0.17742699 -0.38205501 255 255 255
-10.08755016 -0.17742699 -0.38205501 255 255 255
-10.08712196 -0.17742801 -0.38205501 255 255 255
-10.08669376 -0.17742901 -0.38205501 255 255 255
-10.08626461 -0.17743000 -0.38205600 255 255 255
-10.14231014 -0.17008400 -0.42805800 255 255 255
-10.14197826 -0.17008400 -0.42805901 255 255 255
-10.14057732 -0.17053100 -0.42505699 255 255 255
-10.14023876 -0.17053200 -0.42505699 255 255 255
-10.13990116 -0.17053300 -0.42505801 255 255 255
-10.14065075 -0.17008699 -0.42805901 255 255 255
-10.14287472 -0.16904500 -0.43506399 255 255 255
-10.14329243 -0.16874801 -0.43706501 255 255 255
-10.14297962 -0.16874801 -0.43706501 255 254 255
-10.14266682 -0.16874900 -0.43706501 255 254 255
-10.14235401 -0.16875000 -0.43706599 255 254 255
-10.14204121 -0.16875000 -0.43706599 255 254 255
-10.14172840 -0.16875100 -0.43706599 255 255 253
-10.14141560 -0.16875100 -0.43706599 255 255 253
-10.14110279 -0.16875200 -0.43706599 254 255 251
-10.14078999 -0.16875200 -0.43706700 254 255 251
-10.14047718 -0.16875300 -0.43706700 252 255 253
-10.14016438 -0.16875300 -0.43706700 246 250 249
-10.12529564 -0.17263401 -0.41105601 252 251 255
-10.12409306 -0.17293200 -0.40905499 255 255 255
-10.12372208 -0.17293300 -0.40905499 255 255 253
-10.12335014 -0.17293400 -0.40905499 255 255 253
-10.12297821 -0.17293400 -0.40905601 255 255 251
-10.12260723 -0.17293499 -0.40905601 254 255 250
-10.12223530 -0.17293601 -0.40905601 255 255 253
-10.12186337 -0.17293601 -0.40905601 255 255 253
-10.09354591 -0.17698900 -0.38205299 255 249 255
-10.09311676 -0.17698900 -0.38205299 255 250 255
-10.09268856 -0.17699000 -0.38205400 255 252 255
-10.09226131 -0.17699100 -0.38205400 255 252 255
-10.09183216 -0.17699200 -0.38205400 255 254 255
-10.09140396 -0.17699200 -0.38205501 255 254 255
-10.09097576 -0.17699300 -0.38205501 255 255 255
-10.09054756 -0.17699400 -0.38205501 255 255 255
-10.09011936 -0.17699499 -0.38205501 254 255 253
-10.08969116 -0.17699499 -0.38205600 254 255 253
-10.08926296 -0.17699599 -0.38205600 254 255 253
-10.08883381 -0.17699701 -0.38205600 254 255 253
-10.08840561 -0.17699800 -0.38205701 255 255 255
-10.08797836 -0.17699800 -0.38205701 255 255 255
-10.08754921 -0.17699900 -0.38205701 255 255 255
-10.08712101 -0.17700000 -0.38205701 255 255 255
-10.08669281 -0.17700100 -0.38205799 255 255 255
-10.08626461 -0.17700100 -0.38205799 255 255 255
-10.14477730 -0.16872500 -0.43506399 255 255 255
-10.14091396 -0.17019300 -0.42505899 255 255 255
-10.14057636 -0.17019300 -0.42505899 255 255 255
-10.14023781 -0.17019400 -0.42505899 255 255 255
-10.13990021 -0.17019500 -0.42505899 255 255 255
-10.14065075 -0.16975500 -0.42806101 255 255 255
-10.14287472 -0.16872799 -0.43506500 255 255 255
-10.14329243 -0.16843501 -0.43706700 255 255 255
-10.14297867 -0.16843601 -0.43706700 254 254 255
-10.14266586 -0.16843601 -0.43706700 255 254 255
-10.14235306 -0.16843700 -0.43706700 255 254 255
-10.14204121 -0.16843700 -0.43706799 255 254 255
-10.14172840 -0.16843800 -0.43706799 255 255 253
-10.14141464 -0.16843800 -0.43706799 255 255 253
-10.14110184 -0.16843900 -0.43706799 254 255 251
-10.14078903 -0.16844000 -0.43706799 254 255 252
-10.14047623 -0.16844000 -0.43706900 251 254 252
-10.14016438 -0.16844100 -0.43706900 243 246 247
-10.12676525 -0.17226399 -0.41105700 231 227 252
-10.12639713 -0.17226399 -0.41105700 236 233 253
-10.12520695 -0.17255899 -0.40905601 241 239 252
-10.12483597 -0.17255899 -0.40905601 247 246 253
-10.12446404 -0.17256001 -0.40905699 254 254 255
-10.12409210 -0.17256100 -0.40905699 255 255 255
-10.12372112 -0.17256100 -0.40905699 255 255 252
-10.12334919 -0.17256200 -0.40905699 255 255 252
-10.12297821 -0.17256300 -0.40905800 254 255 250
-10.12260628 -0.17256300 -0.40905800 254 255 251
-10.09354496 -0.17656000 -0.38205501 255 249 255
-10.09311676 -0.17656100 -0.38205600 255 250 255
-10.09268761 -0.17656200 -0.38205600 255 252 255
-10.09226036 -0.17656200 -0.38205600 255 252 255
-10.09183216 -0.17656299 -0.38205701 255 254 255
-10.09140301 -0.17656399 -0.38205701 255 254 255
-10.09097481 -0.17656501 -0.38205701 255 255 255
-10.09054661 -0.17656600 -0.38205701 255 255 255
-10.09011936 -0.17656600 -0.38205799 254 255 253
-10.08969021 -0.17656700 -0.38205799 254 255 253
-10.08926201 -0.17656800 -0.38205799 254 255 253
-10.08883381 -0.17656900 -0.38205901 254 255 253
-10.08840466 -0.17656900 -0.38205901 255 255 255
-10.08797741 -0.17657000 -0.38205901 255 255 255
-10.08754921 -0.17657100 -0.38205901 255 255 255
-10.08712006 -0.17657200 -0.38205999 255 255 255
-10.08669186 -0.17657200 -0.38205999 255 255 255
-10.08626366 -0.17657299 -0.38205999 255 255 255
-10.14301395 -0.16913100 -0.43006301 255 255 255
-10.14091301 -0.16985500 -0.42506000 255 255 255
-10.14057541 -0.16985500 -0.42506099 255 255 255
-10.14023685 -0.16985600 -0.42506099 255 255 255
-10.13989925 -0.16985700 -0.42506099 255 255 255
-10.13956070 -0.16985700 -0.42506099 255 255 255
-10.14360428 -0.16812199 -0.43706799 255 255 255
-10.14329147 -0.16812199 -0.43706799 255 255 255
-10.14297867 -0.16812301 -0.43706900 253 254 255
-10.14266586 -0.16812301 -0.43706900 254 255 255
-10.14235306 -0.16812401 -0.43706900 254 255 255
-10.14204025 -0.16812401 -0.43706900 254 255 255
-10.14172745 -0.16812500 -0.43706900 254 255 253
-10.14141369 -0.16812600 -0.43707001 254 255 253
-10.14110184 -0.16812600 -0.43707001 254 255 253
-10.14078903 -0.16812700 -0.43707001 254 255 255
-10.14047623 -0.16812700 -0.43707001 249 251 250
-10.14016342 -0.16812800 -0.43707001 241 242 246
-10.12676430 -0.17189600 -0.41105899 237 233 255
-10.12639713 -0.17189699 -0.41105899 242 239 255
-10.12520695 -0.17218700 -0.40905800 247 245 255
-10.12483501 -0.17218800 -0.40905800 251 250 255
-10.12446308 -0.17218800 -0.40905899 255 254 255
-10.12409210 -0.17218900 -0.40905899 255 255 255
-10.12372017 -0.17219000 -0.40905899 255 255 255
-10.12334919 -0.17219000 -0.40905899 255 255 254
-10.12297726 -0.17219099 -0.40906000 255 255 253
-10.12260532 -0.17219201 -0.40906000 255 255 253
-10.09354401 -0.17613199 -0.38205799 255 250 255
-10.09311581 -0.17613301 -0.38205799 255 251 255
-10.09268761 -0.17613301 -0.38205799 255 253 255
-10.09225941 -0.17613401 -0.38205901 255 253 255
-10.09183121 -0.17613500 -0.38205901 255 254 255
-10.09140301 -0.17613600 -0.38205901 255 254 255
-10.09097385 -0.17613600 -0.38205901 255 255 255
-10.09054565 -0.17613700 -0.38205999 255 255 255
-10.09011841 -0.17613800 -0.38205999 254 255 253
-10.08968925 -0.17613900 -0.38205999 254 255 253
-10.08926105 -0.17614000 -0.38206100 254 255 253
-10.08883286 -0.17614000 -0.38206100 254 255 253
-10.08840466 -0.17614099 -0.38206100 255 255 255
-10.08797646 -0.17614201 -0.38206100 255 255 255
-10.08754826 -0.17614301 -0.38206199 255 255 255
-10.08712006 -0.17614301 -0.38206199 255 255 255
-10.08669090 -0.17614400 -0.38206199 255 255 255
-10.08626270 -0.17614500 -0.38206300 255 255 255
-10.14125061 -0.16951600 -0.42506200 255 255 255
-10.14091301 -0.16951700 -0.42506200 255 255 255
-10.13986111 -0.16980299 -0.42306101 255 255 255
-10.13951874 -0.16980299 -0.42306200 255 255 255
-10.13989925 -0.16951901 -0.42506301 255 255 255
-10.14064980 -0.16909100 -0.42806500 255 255 255
-10.14360428 -0.16780899 -0.43707001 255 255 255
-10.14329147 -0.16780899 -0.43707001 255 255 255
-10.14297771 -0.16780999 -0.43707001 253 254 255
-10.14266491 -0.16781101 -0.43707001 254 255 255
-10.14235210 -0.16781101 -0.43707100 254 255 255
-10.14204025 -0.16781200 -0.43707100 254 255 255
-10.14172745 -0.16781200 -0.43707100 254 255 253
-10.14141369 -0.16781300 -0.43707100 254 255 253
-10.14110088 -0.16781300 -0.43707201 253 255 252
-10.14078808 -0.16781400 -0.43707201 252 254 253
-10.14047527 -0.16781400 -0.43707201 244 246 245
-10.14016342 -0.16781500 -0.43707201 238 239 243
-10.12830353 -0.17124200 -0.41306099 232 229 251
-10.12794113 -0.17124300 -0.41306201 236 232 254
-10.12676334 -0.17152900 -0.41106099 241 238 255
-10.12639618 -0.17152999 -0.41106099 247 245 255
-10.12520599 -0.17181499 -0.40906000 251 249 255
-10.12483406 -0.17181601 -0.40906000 254 253 255
-10.12446308 -0.17181700 -0.40906101 255 254 255
-10.12409115 -0.17181700 -0.40906101 255 255 255
-10.12372017 -0.17181800 -0.40906101 255 255 253
-10.12334824 -0.17181900 -0.40906101 255 255 253
-10.09354305 -0.17570400 -0.38205999 255 250 255
-10.09311485 -0.17570400 -0.38205999 255 251 255
-10.09268665 -0.17570500 -0.38206100 255 252 255
-10.09225941 -0.17570600 -0.38206100 255 253 255
-10.09183025 -0.17570700 -0.38206100 255 254 255
-10.09140205 -0.17570700 -0.38206199 255 254 255
-10.09097385 -0.17570800 -0.38206199 255 255 255
-10.09054470 -0.17570899 -0.38206199 255 255 255
-10.09011745 -0.17570999 -0.38206199 254 255 253
-10.08968925 -0.17570999 -0.38206300 254 255 253
-10.08926010 -0.17571101 -0.38206300 254 255 253
-10.08883190 -0.17571200 -0.38206300 254 255 253
-10.08840370 -0.17571300 -0.38206401 255 255 255
-10.08797455 -0.17571300 -0.38206401 255 255 255
-10.08754730 -0.17571400 -0.38206401 255 255 255
-10.08711910 -0.17571500 -0.38206401 255 255 255
-10.08669090 -0.17571600 -0.38206500 255 255 255
-10.08626175 -0.17571700 -0.38206500 255 255 255
-10.14371777 -0.16819499 -0.43206799 255 255 255
-10.14020348 -0.16946000 -0.42306301 255 255 255
-10.13986111 -0.16946000 -0.42306301 255 255 255
-10.13951874 -0.16946100 -0.42306399 255 255 255
-10.13917637 -0.16946200 -0.42306399 255 255 255
-10.14319038 -0.16777600 -0.43507001 255 255 255
-10.14360332 -0.16749600 -0.43707201 255 255 255
-10.14328957 -0.16749699 -0.43707201 255 255 255
-10.14297676 -0.16749699 -0.43707201 254 255 255
-10.14266491 -0.16749801 -0.43707201 253 254 255
-10.14235210 -0.16749801 -0.43707201 253 255 254
-10.14203930 -0.16749901 -0.43707299 254 255 255
-10.14172554 -0.16749901 -0.43707299 254 255 253
-10.14141273 -0.16750000 -0.43707299 254 255 253
-10.14109993 -0.16750000 -0.43707299 251 253 250
-10.14078808 -0.16750100 -0.43707299 248 250 249
-10.14047527 -0.16750200 -0.43707401 238 240 239
-10.14016247 -0.16750200 -0.43707401 234 235 239
-10.12830257 -0.17087901 -0.41306299 237 234 254
-10.12794018 -0.17088000 -0.41306299 241 238 255
-10.12676334 -0.17116100 -0.41106299 247 245 255
-10.12639523 -0.17116199 -0.41106299 253 251 255
-10.12520504 -0.17144400 -0.40906200 255 254 255
-10.12483406 -0.17144500 -0.40906200 255 254 255
-10.12446213 -0.17144500 -0.40906301 255 255 255
-10.12409115 -0.17144600 -0.40906301 255 255 255
-10.12371922 -0.17144699 -0.40906301 255 255 251
-10.12334728 -0.17144699 -0.40906301 255 255 251
-10.09354305 -0.17527500 -0.38206199 255 249 255
-10.09311390 -0.17527600 -0.38206300 255 250 255
-10.09268570 -0.17527699 -0.38206300 255 252 255
-10.09225845 -0.17527799 -0.38206300 255 252 255
-10.09182930 -0.17527799 -0.38206401 255 254 255
-10.09140110 -0.17527901 -0.38206401 255 254 255
-10.09097290 -0.17528000 -0.38206401 255 255 255
-10.09054470 -0.17528100 -0.38206401 255 255 255
-10.09011555 -0.17528100 -0.38206500 254 255 253
-10.08968830 -0.17528200 -0.38206500 254 255 253
-10.08926010 -0.17528300 -0.38206500 254 255 253
-10.08883095 -0.17528400 -0.38206601 254 255 253
-10.08840275 -0.17528400 -0.38206601 255 255 255
-10.08797455 -0.17528500 -0.38206601 255 255 255
-10.08754635 -0.17528600 -0.38206601 255 255 255
-10.08711815 -0.17528699 -0.38206699 255 255 255
-10.08668995 -0.17528699 -0.38206699 255 255 255
-10.08626175 -0.17528801 -0.38206699 255 255 255
-10.14350605 -0.16745900 -0.43507200 255 255 255
-10.14391518 -0.16718300 -0.43707299 255 255 255
-10.14360332 -0.16718300 -0.43707299 255 255 255
-10.14328957 -0.16718400 -0.43707299 255 255 255
-10.14297676 -0.16718400 -0.43707401 254 255 255
-10.14266396 -0.16718499 -0.43707401 253 254 255
-10.14235115 -0.16718499 -0.43707401 252 254 253
-10.14203835 -0.16718601 -0.43707401 254 255 255
-10.14172554 -0.16718701 -0.43707401 254 255 253
-10.14141273 -0.16718701 -0.43707499 254 255 253
-10.14109993 -0.16718800 -0.43707499 248 250 247
-10.14078712 -0.16718800 -0.43707499 243 245 244
-10.12902927 -0.17051500 -0.41306499 229 227 248
-10.12866592 -0.17051500 -0.41306499 233 231 252
-10.12830257 -0.17051600 -0.41306499 243 241 255
-10.12712860 -0.17079300 -0.41106400 246 244 255
-10.12676239 -0.17079400 -0.41106501 252 251 255
-10.12639523 -0.17079499 -0.41106501 255 254 255
-10.12602711 -0.17079499 -0.41106501 255 254 255
-10.12483311 -0.17107300 -0.40906399 255 255 255
-10.12446117 -0.17107400 -0.40906501 255 255 253
-10.12409019 -0.17107400 -0.40906501 255 255 251
-10.09354210 -0.17484701 -0.38206500 255 249 255
-10.09311390 -0.17484801 -0.38206500 255 250 255
-10.09268475 -0.17484900 -0.38206500 255 252 255
-10.09225655 -0.17484900 -0.38206601 255 252 255
-10.09182930 -0.17485000 -0.38206601 255 254 255
-10.09140015 -0.17485100 -0.38206601 255 254 255
-10.09097195 -0.17485200 -0.38206601 255 255 255
-10.09054375 -0.17485200 -0.38206699 255 255 255
-10.09011459 -0.17485300 -0.38206699 254 255 253
-10.08968735 -0.17485400 -0.38206699 254 255 253
-10.08925915 -0.17485499 -0.38206801 254 255 253
-10.08883095 -0.17485499 -0.38206801 254 255 253
-10.08840179 -0.17485601 -0.38206801 255 255 255
-10.08797359 -0.17485701 -0.38206801 255 255 255
-10.08754635 -0.17485800 -0.38206899 255 255 255
-10.08711720 -0.17485800 -0.38206899 255 255 255
-10.08668900 -0.17485900 -0.38206899 255 255 255
-10.08626080 -0.17486000 -0.38207000 255 255 255
-10.14422798 -0.16686900 -0.43707499 255 255 255
-10.14391518 -0.16687000 -0.43707499 255 255 255
-10.14360237 -0.16687000 -0.43707499 255 255 255
-10.14328861 -0.16687100 -0.43707499 255 255 255
-10.14297581 -0.16687199 -0.43707499 254 255 255
-10.14266300 -0.16687199 -0.43707600 252 253 255
-10.14235115 -0.16687299 -0.43707600 250 253 252
-10.14203835 -0.16687299 -0.43707600 253 255 254
-10.14172459 -0.16687401 -0.43707600 254 255 253
-10.14141178 -0.16687401 -0.43707600 254 255 253
-10.14109898 -0.16687500 -0.43707699 245 248 245
-10.14078712 -0.16687500 -0.43707699 238 240 239
-10.12902832 -0.17015100 -0.41306701 234 232 253
-10.12866497 -0.17015199 -0.41306701 239 238 255
-10.12830162 -0.17015301 -0.41306701 249 247 255
-10.12793922 -0.17015301 -0.41306701 251 250 255
-10.12676144 -0.17042699 -0.41106701 254 253 255
-10.12639427 -0.17042699 -0.41106701 255 255 255
-10.12602711 -0.17042799 -0.41106701 255 255 254
-10.12565899 -0.17042901 -0.41106701 255 255 252
-10.12446117 -0.17070200 -0.40906700 255 255 249
-10.12492371 -0.17043000 -0.41106799 255 255 249
-10.09354115 -0.17441900 -0.38206699 255 249 255
-10.09311295 -0.17442000 -0.38206699 255 249 255
-10.09268475 -0.17442000 -0.38206801 255 251 255
-10.09225559 -0.17442100 -0.38206801 255 251 255
-10.09182835 -0.17442200 -0.38206801 255 254 255
-10.09140015 -0.17442299 -0.38206801 255 254 255
-10.09097099 -0.17442299 -0.38206899 255 255 255
-10.09054279 -0.17442399 -0.38206899 255 255 255
-10.09011459 -0.17442501 -0.38206899 254 255 253
-10.08968639 -0.17442600 -0.38207000 254 255 253
-10.08925819 -0.17442600 -0.38207000 254 255 253
-10.08882999 -0.17442700 -0.38207000 254 255 253
-10.08840179 -0.17442800 -0.38207000 255 255 255
-10.08797264 -0.17442900 -0.38207099 255 255 255
-10.08754539 -0.17442900 -0.38207099 255 255 255
-10.08711720 -0.17443000 -0.38207099 255 255 255
-10.08668804 -0.17443100 -0.38207200 255 255 255
-10.08625984 -0.17443199 -0.38207200 255 255 255
-10.14630318 -0.16722000 -0.43207100 255 255 255
-10.14699268 -0.16681901 -0.43507299 255 255 255
-10.14667606 -0.16681901 -0.43507299 255 255 255
-10.14635944 -0.16682000 -0.43507299 255 255 255
-10.14673042 -0.16655201 -0.43707499 255 255 255
-10.14641666 -0.16655301 -0.43707499 255 255 255
-10.14422703 -0.16655600 -0.43707600 255 255 255
-10.14391422 -0.16655700 -0.43707600 255 255 255
-10.14360142 -0.16655800 -0.43707699 255 255 255
-10.14328861 -0.16655800 -0.43707699 255 255 255
-10.14297581 -0.16655900 -0.43707699 254 255 255
-10.14266300 -0.16655900 -0.43707699 252 253 255
-10.14235020 -0.16655999 -0.43707699 250 252 251
-10.14203739 -0.16655999 -0.43707800 253 255 254
-10.14172363 -0.16656099 -0.43707800 254 255 253
-10.14141178 -0.16656099 -0.43707800 254 255 253
-10.14109898 -0.16656201 -0.43707800 245 247 244
-10.14078617 -0.16656300 -0.43707800 236 238 237
-10.13093758 -0.16938400 -0.41607001 227 226 240
-10.13811588 -0.16683400 -0.43507901 230 229 247
-10.12902832 -0.16978800 -0.41306901 237 235 255
-10.12866497 -0.16978900 -0.41306901 244 243 255
-10.12830067 -0.16978900 -0.41306901 253 252 255
-10.12793827 -0.16979000 -0.41306901 254 253 255
-10.12676144 -0.17005900 -0.41106901 254 254 253
-10.12639332 -0.17005999 -0.41106901 255 255 254
-10.12602615 -0.17006101 -0.41106901 255 255 251
-10.12565899 -0.17006101 -0.41106901 255 255 251
-10.09354019 -0.17399000 -0.38206899 255 248 255
-10.09311199 -0.17399099 -0.38207000 255 249 255
-10.09268379 -0.17399199 -0.38207000 255 251 255
-10.09225464 -0.17399301 -0.38207000 255 251 255
-10.09182739 -0.17399301 -0.38207000 255 254 255
-10.09139919 -0.17399400 -0.38207099 255 254 255
-10.09097099 -0.17399500 -0.38207099 255 255 255
-10.09054184 -0.17399600 -0.38207099 255 255 255
-10.09011364 -0.17399700 -0.38207200 254 255 253
-10.08968639 -0.17399700 -0.38207200 254 255 253
-10.08925724 -0.17399800 -0.38207200 254 255 253
-10.08882904 -0.17399900 -0.38207200 254 255 253
-10.08840084 -0.17399999 -0.38207299 255 255 255
-10.08797169 -0.17399999 -0.38207299 255 255 255
-10.08754444 -0.17400099 -0.38207299 255 255 255
-10.08711624 -0.17400201 -0.38207400 255 255 255
-10.08668804 -0.17400301 -0.38207400 255 255 255
-10.08625889 -0.17400301 -0.38207400 255 255 255
-10.08583069 -0.17400400 -0.38207400 255 255 255
-10.08540344 -0.17400500 -0.38207501 255 255 255
-10.14730930 -0.16650100 -0.43507400 255 255 255
-10.14597893 -0.16689800 -0.43207300 255 255 255
-10.14565468 -0.16689800 -0.43207300 255 255 255
-10.14635754 -0.16650300 -0.43507501 255 255 255
-10.14604092 -0.16650300 -0.43507501 255 255 255
-10.14641571 -0.16624001 -0.43707600 255 255 255
-10.14422703 -0.16624400 -0.43707800 255 255 255
-10.14391422 -0.16624400 -0.43707800 255 255 255
-10.14360142 -0.16624500 -0.43707800 255 255 255
-10.14328766 -0.16624500 -0.43707901 255 255 253
-10.14297485 -0.16624600 -0.43707901 255 253 247
-10.14266205 -0.16624600 -0.43707901 254 254 248
-10.14235020 -0.16624700 -0.43707901 253 254 249
-10.14203739 -0.16624799 -0.43707901 254 255 252
-10.14172363 -0.16624799 -0.43708000 254 255 254
-10.14141083 -0.16624901 -0.43708000 250 251 253
-10.14109802 -0.16624901 -0.43708000 238 242 245
-10.14078522 -0.16625001 -0.43708000 230 233 241
-10.13093662 -0.16902700 -0.41607100 230 228 241
-10.13057995 -0.16902800 -0.41607201 237 233 248
-10.12902737 -0.16942500 -0.41307101 246 241 255
-10.12866402 -0.16942599 -0.41307101 252 247 255
-10.12830067 -0.16942599 -0.41307101 255 254 255
-10.12793827 -0.16942701 -0.41307101 255 255 255
-10.12757397 -0.16942801 -0.41307199 255 255 254
-10.12721062 -0.16942801 -0.41307199 255 255 254
-10.12684822 -0.16942900 -0.41307199 255 255 253
-10.12648487 -0.16942900 -0.41307199 255 255 253
-10.09354019 -0.17356201 -0.38207200 255 249 255
-10.09311104 -0.17356300 -0.38207200 255 250 255
-10.09268284 -0.17356400 -0.38207200 255 252 255
-10.09225464 -0.17356400 -0.38207200 255 252 255
-10.09182644 -0.17356500 -0.38207299 255 254 255
-10.09139824 -0.17356600 -0.38207299 255 254 255
-10.09097004 -0.17356700 -0.38207299 255 255 255
-10.09054184 -0.17356700 -0.38207400 255 255 255
-10.09011269 -0.17356800 -0.38207400 254 255 253
-10.08968544 -0.17356899 -0.38207400 254 255 253
-10.08925724 -0.17357001 -0.38207400 254 255 253
-10.08882809 -0.17357001 -0.38207501 254 255 253
-10.08839989 -0.17357101 -0.38207501 255 255 255
-10.08797169 -0.17357200 -0.38207501 255 255 255
-10.08754253 -0.17357300 -0.38207600 255 255 255
-10.08711529 -0.17357400 -0.38207600 255 255 255
-10.08668709 -0.17357400 -0.38207600 255 255 255
-10.08625889 -0.17357500 -0.38207600 255 255 255
-10.08582973 -0.17357600 -0.38207701 255 255 255
-10.08540154 -0.17357700 -0.38207701 255 255 255
-10.14694786 -0.16657300 -0.43207401 255 255 255
-10.14662457 -0.16657300 -0.43207401 255 255 255
-10.14630127 -0.16657400 -0.43207499 255 255 255
-10.14597797 -0.16657400 -0.43207499 255 255 255
-10.14565468 -0.16657500 -0.43207499 255 255 255
-10.14533138 -0.16657600 -0.43207499 255 255 255
-10.14422607 -0.16593100 -0.43708000 255 255 255
-10.14391327 -0.16593100 -0.43708000 255 255 255
-10.14360046 -0.16593200 -0.43708000 255 255 255
-10.14328671 -0.16593300 -0.43708000 255 255 253
-10.14297485 -0.16593300 -0.43708000 255 254 247
-10.14266205 -0.16593400 -0.43708101 255 254 248
-10.14234924 -0.16593400 -0.43708101 255 255 248
-10.14203644 -0.16593499 -0.43708101 255 255 251
-10.14172268 -0.16593499 -0.43708101 253 255 254
-10.14141083 -0.16593599 -0.43708101 245 246 250
-10.13243103 -0.16840900 -0.41807401 225 227 240
-10.13207817 -0.16841000 -0.41807401 229 227 241
